ply
format ascii 1.0
comment File exported by Rhinoceros Version 8
element vertex 892
property float x
property float y
property float z
property uchar red
property uchar green
property uchar blue
end_header
2273.687933233421 -1655.8261991738464 -5000 0 0 0
-3927.584140993463 -5000.000000000001 -3301.348783216137 0 0 0
-4653.76726801217 1901.5171597253143 -5000 0 0 0
-5000.000000000001 -208.98913741530328 -2913.578892086437 0 0 0
-3412.1508609560087 4894.901039029891 5000 0 0 0
-3056.1851281934332 5000 -3955.803554950191 0 0 0
1366.2723108969033 5000.000000000001 -1832.0434432625973 0 0 0
2048.379335109324 5000.000000000001 619.4093709901952 0 0 0
-5000.000000000001 -2728.298491671821 -3828.694051517497 0 0 0
-3812.535702629264 -120.42855616678844 5000 0 0 0
-478.0680292649522 887.7390417678935 5000 0 0 0
-2242.7985850920895 -5000.000000000001 924.1667789985277 0 0 0
4383.70950957002 5000.000000000001 -4520.316421762257 0 0 0
1102.0731069622911 -5000.000000000001 -2879.346752483094 0 0 0
-922.8331902636386 -5000.000000000001 -2401.6167071655477 0 0 0
-4829.389671715624 -3727.869423445254 -5000 0 0 0
890.9898232161022 3863.403466000875 -5000 0 0 0
-5000.000000000001 4771.234798138606 3577.828504414218 0 0 0
-444.20350596504227 5000.000000000001 1227.2291566372046 0 0 0
763.7971387076185 -5000.000000000001 -3769.9579022684875 0 0 0
5000.000000000001 -1154.2178206863912 1353.3053297332042 0 0 0
-4601.371423155712 5000.000000000001 -4830.684033143652 0 0 0
-5000.000000000001 -581.1862394126067 27.25125990214383 0 0 0
1264.8908869665547 1896.0820729360366 -5000 0 0 0
2897.2702882705626 5000.000000000001 2128.768245283873 0 0 0
5000.000000000001 2164.428917302019 -4835.742623468742 0 0 0
2411.267392994495 2848.048171889059 -5000 0 0 0
316.1721980740185 -3969.5372334539607 5000 0 0 0
-2426.1554225469695 5000 -2942.0253904266406 0 0 0
-296.53257471347797 -5000 3783.6564326582743 0 0 0
2768.021713834266 748.6529721639372 5000 0 0 0
4485.45676166446 3039.0891237366427 -5000 0 0 0
-3028.306131264337 -5000 4683.86693377228 0 0 0
-5000 4996.580006553131 -2606.5662724927847 0 0 0
615.6128438262331 4968.353761345313 -5000 0 0 0
4405.5371402788605 3162.802061141842 5000 0 0 0
-5000.000000000001 -696.9977569286702 4269.081842745227 0 0 0
2423.3009514507385 -5000 583.6801303474599 0 0 0
-1690.739810788417 -3097.8763187759914 5000 0 0 0
5000 3471.750052865481 1083.93743451868 0 0 0
5000.000000000001 -2557.9606031803232 1224.6200564432058 0 0 0
-1136.7650591473864 5000.000000000001 -2058.404952780532 0 0 0
-3114.026239194921 5000 3719.997992143034 0 0 0
485.5185632992152 3390.0270603550725 5000 0 0 0
-5000 -4120.621042847923 3535.6354706620973 0 0 0
-3358.135748821374 2077.5937275391043 -5000 0 0 0
-5000 -445.7014964174955 -1162.597954348939 0 0 0
87.1325680460443 5000.000000000001 1101.2522578710943 0 0 0
-4843.558929787743 4863.978014264246 5000 0 0 0
-2810.177774080158 3300.7748510226493 5000 0 0 0
-4742.4570795812015 5000 -1748.7314933672228 0 0 0
4434.569412579095 5000.000000000001 2485.5966714609403 0 0 0
611.2323261849747 5000 4022.1083066529163 0 0 0
4721.227637362304 -5000 -420.60056488057626 0 0 0
-3323.44841599625 2363.2468550294857 -5000 0 0 0
3365.5085174206215 -3892.5189100636744 5000 0 0 0
100.18346137375738 -4349.536033975675 -5000 0 0 0
4469.978753230525 -5000 149.9800733989009 0 0 0
-2633.336553179351 -5000 3078.516767396833 0 0 0
5000.000000000001 4852.092200821311 1382.711700341996 0 0 0
-3209.1137898197 -1002.3157699044405 -5000 0 0 0
2072.2756567747683 -4142.490103441518 5000 0 0 0
-1266.4938002203103 5000 -4102.283608681655 0 0 0
-5000.000000000001 2665.2406284889407 363.65824535659385 0 0 0
-4503.478817410525 5000 -759.5659027619126 0 0 0
-827.7390738147024 3813.179255841849 5000 0 0 0
-5000 4136.316100664584 -1988.8831754163302 0 0 0
2122.2967501367893 -338.06825305245275 5000 0 0 0
200.91044958723364 -5000.000000000001 1292.149567181315 0 0 0
5000 3102.4033613979827 3519.8115876502425 0 0 0
-1515.1988139912482 -4601.2129353365 -5000 0 0 0
2727.9735578819996 -5000.000000000001 -3089.0945662227905 0 0 0
-553.0166884665459 -2464.7659237798143 5000 0 0 0
5000.000000000003 -3858.418613140669 -4319.5022453179145 0 0 0
-5000 -2342.818014949009 -745.2846112406271 0 0 0
-721.9845129745008 150.67994834421188 5000 0 0 0
400.69367056744795 2059.2065700605544 -5000 0 0 0
-5000.000000000001 2502.380333609125 1235.4769027957122 0 0 0
-2224.3232313656827 -3512.275926076003 5000 0 0 0
4190.2370048641405 -5000 -4682.877869197577 0 0 0
5000 -4564.8948659956895 3414.295994869573 0 0 0
-5000 1437.0560303502973 -4552.8848746572085 0 0 0
657.2123829541781 5000.000000000001 1922.893806790418 0 0 0
5000.000000000001 1585.17040153275 -2069.228765121303 0 0 0
-5000 -1400.747330114593 2334.9503275635416 0 0 0
2835.0886925287004 -5000 -394.4507964860886 0 0 0
-2485.728411695795 -5000.000000000002 -3014.3686281584064 0 0 0
-1736.6831594783255 5000 159.80121454214645 0 0 0
-3233.160887953435 -5000 -1783.062776915292 0 0 0
5000.000000000001 2225.7425809398947 -721.466329750356 0 0 0
1840.7790534388178 -4577.390807483995 -5000 0 0 0
238.7760417716463 1878.1398874140064 5000 0 0 0
-3463.833606086594 224.32355919122892 -5000 0 0 0
-4996.457658706448 5000.000000000002 -2355.0682688854026 0 0 0
266.9390175803276 5000.000000000001 2098.4672136131985 0 0 0
755.8466055224853 -5000 3143.9725766628862 0 0 0
5000.000000000001 1441.240010988544 3981.7964467135243 0 0 0
3979.446882838125 3900.63500446297 5000 0 0 0
-5000.000000000001 4304.533837970596 -743.2140995483912 0 0 0
-604.5713534599957 5000 -3709.2869443396517 0 0 0
-5000 -2956.9282606043525 2380.539545500903 0 0 0
2689.6366512820296 -4848.455944959287 5000 0 0 0
-3190.452753654892 692.745813025509 -5000 0 0 0
-5000.000000000002 3252.647769755055 -1457.4539132683792 0 0 0
-4673.324068856111 -1545.3834489664923 -5000 0 0 0
-4056.3967447059213 1335.144250809748 5000 0 0 0
5000 4973.386251355238 -1081.719950810876 0 0 0
-5000.000000000001 -3105.9146943064015 -476.0905892942528 0 0 0
3119.1150555941826 -5000.000000000001 -4471.579934224291 0 0 0
5000 3457.4480999528632 1825.8910192297258 0 0 0
2668.0374926272953 -4599.650613777178 5000 0 0 0
5000 -3844.8924612462956 636.8725028060719 0 0 0
3214.804766799698 847.6396444475467 5000 0 0 0
2913.8848362089507 5000 -479.7538767940146 0 0 0
2117.1610509590982 5000.000000000001 -2175.2526318539185 0 0 0
170.98292949189545 2469.542742459822 -5000 0 0 0
-967.5384387222762 -1374.8288417117801 5000 0 0 0
-5000.000000000001 -4010.632261173163 -743.9646850079139 0 0 0
5000 -2483.477693741896 284.451751636552 0 0 0
-3114.9840299575517 639.7175861707501 5000 0 0 0
-3791.7311297691103 -3758.1335654287286 5000 0 0 0
2031.5208644752977 5000.000000000002 4367.795814465637 0 0 0
5000.000000000001 2824.9959311564444 -3594.5389832344563 0 0 0
474.7899786917462 5000.000000000002 -2786.8820530301355 0 0 0
-4359.440393447616 -4203.487503902748 5000 0 0 0
544.9647156265415 5000 -512.2846111246771 0 0 0
-4046.829812716148 5000 2993.97746007609 0 0 0
-1712.6013416389942 4030.069075073148 5000 0 0 0
-2885.6155499283323 5000.000000000001 -1287.966648250803 0 0 0
-1704.9090362642464 1593.510465041506 -5000 0 0 0
3572.683906449325 -2095.271845858206 5000 0 0 0
5000 2880.2669131570797 1679.2903964776958 0 0 0
-1991.9578810185003 -5000 -4751.3585722778735 0 0 0
-5000 -1290.591026791646 -2075.0663043349364 0 0 0
3656.2299535871625 -3895.043404258342 5000 0 0 0
1746.8895934274829 5000 -3091.7932596485102 0 0 0
-5000 2130.834505488553 3920.2815382370172 0 0 0
-4145.040781770391 5000.000000000001 -3205.466008840812 0 0 0
5000 -200.77469535208047 -694.3301836467951 0 0 0
-5000 -1443.0064225769631 948.964513814526 0 0 0
-5000.000000000001 -4360.024123154592 -1628.4324585592528 0 0 0
1732.96252113439 5000.000000000002 1446.5404145636326 0 0 0
2325.3248200404105 -5000 -869.1483297707273 0 0 0
-5000 2245.512473045621 2437.4151776718986 0 0 0
5000 -1044.2628227380405 2643.8756182994116 0 0 0
4143.516998339219 -3649.2233111752303 5000 0 0 0
-5000.000000000001 1144.1177949980454 3291.9453029948977 0 0 0
-5000 -1046.0712881973345 -213.1980449022717 0 0 0
353.85711367887234 -4284.939630555427 5000 0 0 0
-3403.8430351781863 4284.953139389378 -5000 0 0 0
2999.850561842252 5000.000000000001 -3588.818418136248 0 0 0
5000 1912.112900480679 4494.05787023439 0 0 0
4056.1433411464777 -5000.000000000001 1715.9048219751135 0 0 0
5000.000000000002 -4222.682923647895 -2575.320390786659 0 0 0
-5000 -1065.543045320335 -3546.9602274461467 0 0 0
4999.999999999999 -2746.5395106685046 1450.0704018632284 0 0 0
73.69755072225689 2271.7656229025524 -5000 0 0 0
-4426.667634130766 -5000.000000000001 78.18958492865272 0 0 0
2867.2457336761286 5000 397.3793775762332 0 0 0
4728.61623844533 5000.000000000001 270.7892168642893 0 0 0
-469.06086870891147 -5000 -4010.1635125513017 0 0 0
-3408.4268698508045 1662.0513455299902 -5000 0 0 0
-4377.873367340245 -5000.000000000001 -2369.8950360388944 0 0 0
2344.36371705698 2616.0757651627414 -5000 0 0 0
-5000.000000000001 2771.8520386944774 4953.733212293001 0 0 0
3571.231760350629 3262.384719337516 5000 0 0 0
-3756.289034502715 5000.000000000001 -4816.586286675459 0 0 0
-2334.7502841310343 1835.280045324601 -5000 0 0 0
5000 4564.812271653122 -1668.9368182182957 0 0 0
4478.520112800652 -5000 2382.8053834768034 0 0 0
-296.6655070412278 -5000.000000000002 750.9923101174609 0 0 0
-424.24468110512953 5000 4929.316365127134 0 0 0
-3678.7789076002223 -5000.000000000001 1632.3628028074113 0 0 0
-4816.495776091002 -3354.1027495423823 5000 0 0 0
-1517.3414519603057 5000 -585.2118253639012 0 0 0
-1823.1970662359136 4795.497348436852 5000 0 0 0
-5000 -3457.3984138934866 706.5472452466129 0 0 0
-3224.883153208012 5000 -667.6196053939036 0 0 0
-902.0981732300015 5000 -896.9192467149899 0 0 0
-2299.617495061654 5000.000000000002 1676.1766079236647 0 0 0
-873.0500405063142 5000 -273.3793273909846 0 0 0
1925.5305020723204 5000 1157.3348036768534 0 0 0
-3128.0263830572485 -5000.000000000001 -2394.4548924427736 0 0 0
-1835.8544431793748 -5000 2037.5430756423364 0 0 0
5000.000000000001 1640.3473013268556 -416.21539062644183 0 0 0
2412.4246590828634 -5000.000000000001 3758.491468037708 0 0 0
-741.5127268720016 -1033.943507836174 -5000 0 0 0
-5000.000000000001 -2975.6699912136755 -3718.786648809346 0 0 0
4212.812976545102 -5000 -2600.471809320371 0 0 0
5000 2094.0346443532217 1772.7235969029011 0 0 0
2896.19427542025 3286.8986941347357 5000 0 0 0
-5000 -1912.3562131600247 2312.543088250116 0 0 0
-3436.5197263828104 2069.0259649739723 5000 0 0 0
-5000.000000000001 3514.4697076242746 -1218.5611604799342 0 0 0
-5000.000000000001 3903.8060134760135 -114.17863197353569 0 0 0
5000.000000000001 2514.0879617603896 -3135.0308741140334 0 0 0
-4501.557801618035 -1698.7341487308659 -5000 0 0 0
-2838.723076432353 5000.000000000001 1672.9685089890709 0 0 0
5000.000000000001 -4751.760498504976 4898.765026544578 0 0 0
5000 1786.6152742815266 3311.3015248958495 0 0 0
3142.607593043991 3091.5705478245254 -5000 0 0 0
5000 4807.933294124872 -711.7495945243859 0 0 0
-3411.0458606905518 -164.45774825497483 -5000 0 0 0
-2788.9844345808897 5000.000000000001 4519.745884239555 0 0 0
-145.6353371709729 5000.000000000001 4662.689058884368 0 0 0
-1453.449449713084 5000.000000000001 -4900.122298812551 0 0 0
-3804.165776262137 861.4428787778324 -5000 0 0 0
-2784.782321092106 -5000.000000000001 -2240.454660374883 0 0 0
-3446.704646780484 1370.4203517969795 -5000 0 0 0
-5000 1058.4201179716833 311.8717834874394 0 0 0
-995.1911754883798 -5000 -3135.6226085385415 0 0 0
1409.1390820262668 993.237442333827 -5000 0 0 0
5000.000000000001 3193.694082178966 4485.012544079224 0 0 0
-2437.9305436452523 -4392.952215575126 5000 0 0 0
810.7525183869302 -1793.1594591555931 5000 0 0 0
3595.7073087784047 5000 420.5202057121883 0 0 0
1408.1569045820079 3393.5756368532666 -5000 0 0 0
-4334.622369769319 -4426.524662145657 5000 0 0 0
2243.72843617747 -2973.4987057622056 5000 0 0 0
2930.805579726958 5000.000000000001 4082.7021650423785 0 0 0
5000 -3914.412003436318 -3062.8613373557396 0 0 0
-3603.8553661684764 680.069078542324 -5000 0 0 0
5000.000000000001 3694.8810558276655 3557.1168263243135 0 0 0
457.97636055293356 -5000 -253.95699090043013 0 0 0
1303.1752064373234 5000 -1458.0625325711737 0 0 0
5000.000000000001 -759.2914745953369 1114.5427898105897 0 0 0
3101.4788188512803 -631.7302331476149 5000 0 0 0
-2531.2917994015343 -5000 -3672.0899579450906 0 0 0
-376.41795136799055 5000.000000000001 2150.7073087388217 0 0 0
-4956.033877076597 1527.3177002218167 5000 0 0 0
3898.088843048591 5000.000000000001 4614.0477338871215 0 0 0
-24.39636505413779 5000.000000000001 -3334.8188960621223 0 0 0
5000.000000000002 -4763.880981953758 -1997.4688054050644 0 0 0
5000.000000000001 -2005.3820950004176 4810.270839282439 0 0 0
-1578.7843971414406 5000 -859.9867279920668 0 0 0
-1472.4996297026526 -5000.000000000001 -1820.7202743835383 0 0 0
1674.544134491377 -70.35232385171275 -5000 0 0 0
704.519457977507 -3176.5961591976684 5000 0 0 0
4211.512519610818 5000.000000000002 1117.6442290272778 0 0 0
1143.9032741561086 -275.7333057353899 -5000 0 0 0
-3852.207916254275 -1497.0333299120111 -5000 0 0 0
5000 1955.6045657748375 -255.6835418826363 0 0 0
284.8557640262185 5000 -1671.5839349998082 0 0 0
2902.1126720598486 -4712.361302092841 -5000 0 0 0
2889.438736201001 5000 169.15402615869067 0 0 0
-700.0071349088148 421.89855846664796 -5000 0 0 0
261.0945912362515 -5000 -4123.054784314268 0 0 0
5000.000000000001 -1122.0255429493382 -2473.370999783917 0 0 0
-2931.1872636578914 -2512.18722086036 -5000 0 0 0
-5000.000000000001 -2357.2663997100976 -3688.8848844398217 0 0 0
5000.000000000001 -1030.9094824040842 -4130.1627173694615 0 0 0
-1744.8264484968167 5000 3206.256641171061 0 0 0
-4947.129874465581 -5000 4856.60017927019 0 0 0
438.20483397608723 -5000 4442.425262854632 0 0 0
-2498.068086569229 -4673.7619161949315 -5000 0 0 0
3472.99481205316 5000.000000000001 -457.289263353352 0 0 0
-1561.8223075577166 1852.9300796114512 -5000 0 0 0
-5000.000000000001 -3725.7753073823515 4343.4356522483 0 0 0
1747.0791175715055 -5000 -3441.700357218134 0 0 0
5000 -3805.4883707340286 -838.8877221564238 0 0 0
-5000 487.05077054307344 763.7346469628333 0 0 0
5000 391.3502839353632 -1187.0967718712502 0 0 0
-4304.968756299917 -1944.3062073291776 5000 0 0 0
4780.88743974496 1099.0905650421469 5000 0 0 0
-711.5468269733465 5000.000000000001 3862.8438622052054 0 0 0
-5000.000000000001 3413.7149334017727 -4193.827244077729 0 0 0
-5000 4217.273252651688 -3793.240710531007 0 0 0
-4609.218942750812 -4999.999999999999 -4082.437320185097 0 0 0
1955.405896043129 -5000 -3136.9899297771003 0 0 0
-3751.819710597312 2516.5304064361985 -5000 0 0 0
-3893.295302471749 3871.6128230428385 5000 0 0 0
-4212.604178680387 5000 3502.27913283849 0 0 0
1155.6344321722318 -5000.000000000001 571.6758480163635 0 0 0
-5000 -1763.801354339254 4683.436145858575 0 0 0
-5000 2526.873293112439 3936.1729747318536 0 0 0
4999.999999999999 -4097.596285444496 -376.4261516632638 0 0 0
3424.7951621305165 1939.904627827883 5000 0 0 0
-3299.1671181745687 -5000.000000000001 2424.1794959754598 0 0 0
5000 -2601.0406518359873 -4993.964261372557 0 0 0
4882.125607636815 1984.855587121498 -5000 0 0 0
3599.1688997480887 -2855.1883054222862 5000 0 0 0
-5000 3152.6424214954686 4548.465828201019 0 0 0
-3590.42736636029 4286.480084660687 -5000 0 0 0
5000.000000000001 4479.206492881852 -3772.4669225385733 0 0 0
5000.000000000001 2310.1105342200553 -150.2999221674636 0 0 0
-4418.775476244639 -1005.7075861868016 5000 0 0 0
893.5858429845357 68.40499353986434 -5000 0 0 0
5000 3526.51744081011 -3764.351708239108 0 0 0
-5000 2099.438606342039 -1760.2452713811047 0 0 0
-3526.7754730427523 -1716.0680735092928 -5000 0 0 0
-4798.933919425557 -179.3763112180759 5000 0 0 0
4999.999999999999 -3845.81715280461 3360.6946879814823 0 0 0
-4670.109525169295 5000 -4399.990318063642 0 0 0
-3053.88924109465 -5000 -3582.9744434836202 0 0 0
4893.749449352619 5000 602.3082396026268 0 0 0
1479.8517043142851 5000 557.5841272052305 0 0 0
-123.34456905878324 789.5102658260203 -5000 0 0 0
2835.604766307215 -1109.569960324824 5000 0 0 0
-2680.313632674661 -617.7139727481244 -5000 0 0 0
3101.1458524042473 5000 -561.7118932128474 0 0 0
-5000 -2096.6216815154175 1656.1689864174325 0 0 0
2230.422923914354 -5000.000000000001 576.253992308049 0 0 0
-1077.6805812854707 5000.000000000001 -2627.9143186416086 0 0 0
-5000.000000000001 1825.8016634852634 -3883.1443520650014 0 0 0
-5000 402.4890462879506 -1207.0566584388994 0 0 0
-2935.718865103887 5000 489.5874790333155 0 0 0
-3793.7817670375953 765.468681121929 5000 0 0 0
5000 3119.960105102493 -4818.301405673055 0 0 0
5000 -4058.8487354381227 201.91899277359173 0 0 0
5000 2860.5405743515785 1264.3711949998383 0 0 0
1139.7331283147166 5000 991.5836509277963 0 0 0
3458.1350481408354 5000 -2883.743875605866 0 0 0
-2696.933382049637 505.47491549769074 5000 0 0 0
-4053.1528084786387 -2659.4894135647874 -5000 0 0 0
-4999.999999999999 2121.5262204043215 -1413.327151170618 0 0 0
3798.5596846782423 5000.000000000001 -884.1956993025709 0 0 0
5000.000000000001 -2978.0256878482305 -1608.4115144835832 0 0 0
-684.7485460735625 -5000.000000000001 -1075.2596455045323 0 0 0
881.8216043905459 -2485.8359934230502 -5000 0 0 0
-1388.951286854665 -5000.000000000001 -4929.172489759127 0 0 0
-4825.351592071984 3330.4935872231117 -5000 0 0 0
-2552.0161807313643 5000 -1431.4946329367788 0 0 0
1134.4536655277261 -1906.2107321369513 -5000 0 0 0
-3115.5829495357266 -5000 271.3368578214839 0 0 0
-3373.666502709345 -4242.363157329319 -5000 0 0 0
-23.949483886337475 -1649.682767060437 5000 0 0 0
1333.4941008749856 2863.210750680049 5000 0 0 0
1385.3612292489788 -5000.000000000002 2321.4221221028943 0 0 0
-3163.846073748472 2781.493639471705 5000 0 0 0
-5000.000000000001 -4057.6985846542284 -2421.118080346435 0 0 0
3012.2047653478608 5000.000000000001 -1859.3491412975593 0 0 0
5000.000000000001 -3294.059652040741 -775.2273491468404 0 0 0
-4660.0910973083655 1560.9403217960803 5000 0 0 0
1965.091380740093 4711.445816658179 5000 0 0 0
4354.289662723564 5000 -3059.0007631382914 0 0 0
5000.000000000001 -507.1406464591355 626.0907303663386 0 0 0
92.12149544252225 4198.556458204313 -5000 0 0 0
-417.24736123217644 -5000.000000000001 3326.348009671247 0 0 0
4380.658790180765 -1656.1568792239568 -5000 0 0 0
-4823.050880722261 -5000 928.3834444025455 0 0 0
4275.977746246373 -5000.000000000001 -4123.616450989441 0 0 0
-5000 -4088.2540350259524 -4485.906343667724 0 0 0
-3422.2935225918436 5000 613.6979887325776 0 0 0
5000.000000000001 -4838.669346570349 -3681.205347497578 0 0 0
5000.000000000001 3484.5633611476824 -2298.2571494291806 0 0 0
-5000.000000000001 -2147.7186107764564 -1912.4691406788627 0 0 0
2131.0318713686584 1677.0204094597234 5000 0 0 0
2651.337505155866 -5000.000000000001 3177.872080438711 0 0 0
5000 -605.7603916180128 3206.8040213579325 0 0 0
4563.145502267009 5000 3519.2886965904813 0 0 0
-2058.714109965934 -5000 4574.250378447701 0 0 0
4981.214744030134 -2248.770565376045 -5000 0 0 0
-502.77086696716776 5000 -4507.963559361158 0 0 0
-5000 -9.66171501654253 4898.907700506461 0 0 0
3955.0769184506867 -5000.000000000001 4219.148512566066 0 0 0
4284.505946228517 -3426.5554549296176 5000 0 0 0
2883.553075549916 857.7431486257083 -5000 0 0 0
-1017.4053376621591 1953.9533215360498 5000 0 0 0
-5000 2997.898453845595 649.0394313116744 0 0 0
3731.3539249502846 5000.000000000002 2435.261997131288 0 0 0
-4999.999999999999 4565.091943165796 678.3843811966408 0 0 0
4007.3031229001053 -5000.000000000001 4657.592661519346 0 0 0
-5000 3057.1300806743693 1329.832811062146 0 0 0
3813.479607372303 -3048.1555909142635 -5000 0 0 0
232.2111442835121 -3082.2013402740486 -5000 0 0 0
832.6768576319691 2227.1074248604045 -5000 0 0 0
-5000.000000000001 2816.7246365066267 3544.264593415086 0 0 0
-4478.923328909522 3953.350735340897 -5000 0 0 0
-531.6044509092351 5000 1689.4821993491992 0 0 0
-2404.614471553182 5000.000000000001 1020.4947302213391 0 0 0
2303.3321263749763 5000.000000000001 -1720.5467572065759 0 0 0
-295.5196403411783 4816.207336176283 -5000 0 0 0
-795.2987522796266 -756.8009038254622 5000 0 0 0
-3662.7097002522596 3004.642914982812 5000 0 0 0
2953.7163479038118 2935.718529827762 5000 0 0 0
-3682.3375796351293 -584.163207367139 5000 0 0 0
4987.3685883299295 1255.6547095326964 5000 0 0 0
4433.228601437633 -5000 -3028.169068520967 0 0 0
1235.1898784913078 -5000.000000000001 -2563.235898298788 0 0 0
-5000 3794.7883497899343 -1084.1184556875928 0 0 0
1196.7659072004099 -2135.9790941402225 5000 0 0 0
-4412.458240712275 3148.924605058937 -5000 0 0 0
-5000.000000000001 2017.7443451330746 1826.9380819177893 0 0 0
-5000 3726.9207130777286 1006.9187479125885 0 0 0
4990.466637532445 4373.369272506502 5000 0 0 0
4755.062730868842 3620.317433318271 5000 0 0 0
185.93145310223645 -1469.7355248358735 -5000 0 0 0
5000 1261.4852405439515 -3899.8757809865647 0 0 0
-5000.000000000001 4947.2523061312995 1375.0254904735023 0 0 0
737.5463171571255 5000.000000000001 2712.7744572762285 0 0 0
-2653.6883309733535 -3604.133221602129 -5000 0 0 0
-4967.190497539563 5000 -28.509970302000056 0 0 0
-5000 -1986.6661480565863 1885.9319001836384 0 0 0
-5000 -4753.044010025005 -735.3260907043355 0 0 0
5000.000000000001 -4990.695901210743 2897.970833768123 0 0 0
-5000.000000000001 -4838.5451314219035 3787.954490998739 0 0 0
2085.238442330266 -5000.000000000002 -1643.7033874186245 0 0 0
2628.1307812911136 -970.589800724103 -5000 0 0 0
2816.2614245974746 -5000 1962.2610821212925 0 0 0
4795.127981246974 5000.000000000001 4523.0239348127625 0 0 0
-3902.013296681462 -5000.000000000001 375.64866495116064 0 0 0
-4689.04823981647 -5000.000000000001 -1403.9395127463813 0 0 0
-4246.545317231934 5000 -3939.3046959020685 0 0 0
3169.415173199689 5000.000000000001 3303.627254582768 0 0 0
-2694.0627990728535 5000.000000000002 337.5112802430565 0 0 0
-5000 -3488.9969176095888 4057.8484996491347 0 0 0
-1397.7225853119617 1253.6323984403311 -5000 0 0 0
-1830.478011085875 -5000.000000000002 -3923.1698209993415 0 0 0
3403.7211390229513 162.3876696277357 5000 0 0 0
-5000 4314.687186532974 4651.31401999449 0 0 0
-5000.000000000001 -4705.799370867107 2362.024000548769 0 0 0
5000.000000000002 438.05758722036035 4685.09522252022 0 0 0
-121.44836835630679 -5000 -3521.4107709570844 0 0 0
2574.6572844566117 -3192.4882476183066 5000 0 0 0
1202.382289898761 -5000 -4871.5913202015645 0 0 0
-5000.000000000001 22.378142467875932 732.1443761382927 0 0 0
5000 4036.8408984676207 -4735.0564458105055 0 0 0
3824.3224606031213 5000 -280.91487720651264 0 0 0
-2838.7673561641795 -4082.681382579116 5000 0 0 0
-1989.2720445009295 -5000.000000000001 944.1206073128246 0 0 0
-5000.000000000001 4761.890270636367 2985.732000314507 0 0 0
-3395.476489512006 2457.629636608823 5000 0 0 0
-5000.000000000001 -4118.859585895603 -8.4560108410451 0 0 0
-4807.825107037939 2281.0652466868355 5000 0 0 0
2762.0181524017944 5000 778.9996991767547 0 0 0
4919.32110857187 -3478.750786035671 -5000 0 0 0
3668.081163739824 5000 4236.1225184221385 0 0 0
-5000 -1387.895013386334 -1124.8097457572867 0 0 0
-4986.5874927428495 4995.701620353247 -5000 0 0 0
-3394.4075593698813 -5000 -199.11757446784424 0 0 0
-4239.900163020892 -12.68506749192511 5000 0 0 0
5000 4284.206512050801 -1827.1912992127204 0 0 0
-5000.000000000001 -1678.5538507059935 3945.853644491106 0 0 0
-5000.000000000001 -4792.170412741682 -305.8571858824507 0 0 0
-5000.000000000001 -4760.178904868746 156.57664051120037 0 0 0
3605.7368240345895 -2356.0855106246127 5000 0 0 0
2099.5087163054905 -5000.000000000001 -4656.30230477839 0 0 0
-5000 -3702.2236402622543 -2263.738842338202 0 0 0
-1734.670846133806 -5000.000000000001 1881.8514360496083 0 0 0
-1532.509674566104 -3273.271493740973 5000 0 0 0
479.0518737766206 -3060.4952564744735 -5000 0 0 0
-5000.000000000001 4625.2490578336865 -2376.137965999608 0 0 0
308.4211262447875 5000.000000000001 -2241.114008818341 0 0 0
-3555.92206053246 5000 3856.699335787772 0 0 0
-5000 -581.2360139476305 3005.25550637639 0 0 0
-4816.582761619512 -5000.000000000001 -4699.989613005887 0 0 0
-5000 4441.979923025696 2292.9489786238178 0 0 0
-5000 4803.187656124675 -1753.2009290313354 0 0 0
-1553.7316941440722 349.4984355519982 5000 0 0 0
-4380.000587264079 5000.000000000001 -1756.0277864132208 0 0 0
4404.532573839897 -2648.2855936737196 5000 0 0 0
-5000 720.4660380820121 151.70258709774475 0 0 0
2058.996552163269 -5000 -227.20046584829743 0 0 0
5000 332.09853588235524 -2310.1958713076065 0 0 0
1842.7498856758436 5000.000000000001 4482.217160743762 0 0 0
1800.4402084278126 819.3539436065385 5000 0 0 0
-1108.867594091626 2721.888738554851 -5000 0 0 0
5000 4761.276319511829 -3143.3903650117063 0 0 0
1956.145836485618 1432.2281239704362 -5000 0 0 0
-5000 -2567.7363796009395 -1651.3286189415164 0 0 0
-2074.9877938418604 -5000.000000000001 2836.3571911288227 0 0 0
5000 1515.9847152028158 1330.5645418961371 0 0 0
1072.1555380486693 -5000 4046.579855050232 0 0 0
5000.000000000002 4883.845215609228 -1346.8142302459182 0 0 0
2356.08519863155 2097.196647476962 5000 0 0 0
-891.0048407926254 -5000.000000000001 4186.788694554375 0 0 0
853.7545827467718 -5000 -4604.18075304673 0 0 0
3684.1641639751215 -4833.886963237954 5000 0 0 0
-2226.005344291224 5000.000000000001 4458.017628387556 0 0 0
5000 3575.826961815277 -1323.7961643951924 0 0 0
-5000 1003.506395967447 -288.90909407702736 0 0 0
-3669.0842680023434 -5000 2750.006214599128 0 0 0
-2245.1610431285408 5000.000000000001 3528.1921171248855 0 0 0
5000 -922.0023527378237 -2485.1315596537347 0 0 0
3781.7114353094757 5000.000000000001 719.9631238914853 0 0 0
-1886.3021474733491 -3955.5010287815257 -5000 0 0 0
5000 -154.73357176162813 332.27347085824044 0 0 0
-2788.300080126291 -903.6096073238223 -5000 0 0 0
4243.526984585231 -5000.000000000001 -135.16557176372316 0 0 0
4233.069503322742 2715.95317298358 -5000 0 0 0
-5000 454.2135286397365 4370.382469785576 0 0 0
-4748.653462039612 -5000 2438.815924077676 0 0 0
-5000.000000000001 3598.7098555074585 -3736.7384548935756 0 0 0
-1072.5347632880043 5000 2959.490813296051 0 0 0
1671.3618425053378 -5000.000000000001 -4399.039349238873 0 0 0
46.36442989407283 -5000.000000000001 1627.8629641178363 0 0 0
-2106.738834225917 -3997.1297695288104 -5000 0 0 0
-4056.8926600072973 -5000 4623.856176447056 0 0 0
-303.34591646834633 4125.371612201152 5000 0 0 0
3444.29166915095 -5000.000000000001 2088.85631854127 0 0 0
-2694.223265952535 -2860.461085969797 5000 0 0 0
-3915.329365485967 1996.7860761083598 5000 0 0 0
2345.300767265865 -5000 3946.1852046410495 0 0 0
-5000.000000000002 -4256.293638263036 184.03516858072817 0 0 0
286.5198232636426 -5000 4887.506840698192 0 0 0
-5000 -1485.262036549515 528.0494808815652 0 0 0
3931.4623730869316 -645.4039577606154 5000 0 0 0
-5000.000000000001 2774.2913867227235 2382.940401967123 0 0 0
-247.4535653588598 5000 651.4583600924616 0 0 0
3221.95786899978 5000 1878.089693783824 0 0 0
2312.230187147963 -20.87623580399668 -5000 0 0 0
4661.853774293257 5000 717.5699741195749 0 0 0
-5000 2051.2516456894823 3619.5211664864432 0 0 0
-4520.73684871231 -5000.000000000001 443.452929818749 0 0 0
-4322.988087927456 5000 42.56147194773075 0 0 0
4534.335983700275 -3377.9604352908027 -5000 0 0 0
-1373.4462840358942 -1322.203509659601 -5000 0 0 0
175.08474419595973 -5000 185.0383846019579 0 0 0
-5000 -2836.262931971002 -1479.6337888015596 0 0 0
-5000.000000000001 -2908.4137584587625 -4119.722945205739 0 0 0
5000 3461.080746939906 -4575.123968336323 0 0 0
-2533.3533657404378 4297.606218279156 5000 0 0 0
-293.4496175932927 -3892.1563834381104 -5000 0 0 0
-5000.000000000002 -3550.470400857958 -2474.7214408008026 0 0 0
-482.49746928107834 -1379.6097395846664 5000 0 0 0
-5000 4496.987694640173 -583.7009547202391 0 0 0
4721.036497373616 -90.34871826430299 5000 0 0 0
5000 1936.2924140581367 -1412.5914575590718 0 0 0
-2445.9599086297503 -5000 4689.788217511861 0 0 0
3915.5852091105603 -5000 2103.7309370486673 0 0 0
-2712.2832311840198 -5000.000000000002 1050.6890323249115 0 0 0
4853.902324034785 -5000 -2192.983900752377 0 0 0
-688.0416514761937 4952.407777287256 -5000 0 0 0
-5000 -1637.2622021647471 -2815.9345490000837 0 0 0
5000.000000000001 2166.2646518863094 2732.0127737391804 0 0 0
5000.000000000001 -1676.8483802102744 -4999.464442953219 0 0 0
4558.716243858782 -523.9586092177587 5000 0 0 0
-5000 -3042.43524467686 -4807.191071942072 0 0 0
136.43630088141356 5000.000000000001 -4514.376581420367 0 0 0
-2948.172682872123 -5000.000000000001 -3753.6013167135425 0 0 0
5000 1365.3068134399646 1559.9717137217394 0 0 0
4625.9092072145595 -5000.000000000001 4318.528617414892 0 0 0
3837.733650038829 -5000.000000000001 -4865.972963099356 0 0 0
-146.2488692003526 4050.864972663515 -5000 0 0 0
-3046.583280920323 -543.6785218974937 -5000 0 0 0
-2403.031982203494 5000 -964.026598243056 0 0 0
-5000.000000000001 -2694.7312558510953 -4151.1826772015465 0 0 0
-5000 -3615.2796068299936 3712.3674055153356 0 0 0
-5000.000000000001 -4520.1292818040265 -4314.516386629323 0 0 0
-209.6811659679181 -5000.000000000001 -2115.961982456951 0 0 0
-165.8368181278165 1139.1391773424757 -5000 0 0 0
-210.42422168442226 2128.03724088149 -5000 0 0 0
-5000.000000000001 465.82113274644155 -4256.643214848194 0 0 0
-5000.000000000001 4973.755399684308 -4197.384365460549 0 0 0
-4528.616540845771 -2579.0180254629904 -5000 0 0 0
-4976.809117932249 1865.5601315505614 -5000 0 0 0
3175.643406890167 -1866.3777768921009 5000 0 0 0
-5000 1402.6256447670175 -2046.303901377275 0 0 0
-5000.000000000001 -324.49734179512467 -3980.902707660992 0 0 0
1756.3160633464877 500.2753881273211 5000 0 0 0
-2097.7595434979344 2581.0820085839755 5000 0 0 0
-5000 -226.54195559515756 2959.44603065003 0 0 0
3944.767498851179 1089.0241181892457 5000 0 0 0
-1902.7426871018215 1530.6393832576641 5000 0 0 0
3372.432430448214 5000 2367.393023971186 0 0 0
5000 1003.8298163580853 3953.6399389401267 0 0 0
-5000.000000000001 -1005.6087542351381 -4612.868679507109 0 0 0
-3484.314651454014 5000 4833.161504861508 0 0 0
5000 280.94517312987887 2315.2634628653823 0 0 0
-5000.000000000001 -2200.309972837712 2304.5603732134045 0 0 0
1792.5294147769591 -2681.9524856665876 -5000 0 0 0
1299.4573341214364 406.49268562276484 -5000 0 0 0
-2627.797852096985 4794.9314908100905 5000 0 0 0
3812.734381674201 5000.000000000001 -1963.0490555255906 0 0 0
1855.102305698722 5000.000000000002 3169.5066802992983 0 0 0
5000 184.81548651345702 3513.0687516709186 0 0 0
-5000.000000000001 1850.4062047462937 -3689.5831994198193 0 0 0
4204.487534800772 2521.892649830269 5000 0 0 0
-5000.000000000001 -2251.341001713342 315.1372379228178 0 0 0
-5000.000000000001 -345.5980472944659 -2471.709510996803 0 0 0
-118.03455889133454 -5000.000000000001 -1016.6696766469025 0 0 0
-5000.000000000001 1285.0950687588638 -2360.3576549144273 0 0 0
-910.5834951207895 -5000.000000000001 -2855.7782191111614 0 0 0
1786.161929735059 5000.000000000001 2071.16409534177 0 0 0
37.918181641920455 -2522.2172762836417 5000 0 0 0
-4878.3400840490785 5000 3548.336722212069 0 0 0
5000 -1666.9376598051463 4340.98507712641 0 0 0
5000.000000000001 -746.6839513493189 1399.1657394911936 0 0 0
2973.2002587864204 5000 2997.9545008381615 0 0 0
-3959.8148823528622 -5000 -2344.5560677650183 0 0 0
5000.000000000001 -2786.9058483219255 -4378.844434106185 0 0 0
-1268.7128159537501 -4607.590264458018 -5000 0 0 0
1223.8272774144198 -1739.27759134177 5000 0 0 0
-3646.731240976012 -5000 -3984.7552119683273 0 0 0
-2445.7312549677367 -5000 -35.40124512994748 0 0 0
5000 -173.66508728529755 -3576.6454500037457 0 0 0
-5000 -1859.9841077160022 -528.0974346809544 0 0 0
-4050.0676767202413 -5000.000000000001 1545.5250705338663 0 0 0
-2073.8440459006642 5000 3021.332504237691 0 0 0
-5000.000000000001 -1699.0461743897981 -2381.6566389899967 0 0 0
-463.6171485593615 -5000 -2902.678264259677 0 0 0
5000.000000000001 4573.963158565555 4474.8750652535255 0 0 0
-5000 1289.23490005044 1760.1677015238292 0 0 0
-2281.2184352805925 -1779.5618841329406 5000 0 0 0
2031.3181574602197 5000.000000000001 -556.6955802760533 0 0 0
2599.932857602804 4248.118013724739 5000 0 0 0
2998.3345409847498 887.5765772012892 5000 0 0 0
5000.000000000001 -2029.1700665974845 364.1917721201622 0 0 0
-5000.000000000001 -3376.683876093797 1869.5960644956654 0 0 0
-5000 -667.8385733011362 854.9550016666549 0 0 0
5000.000000000001 3793.248705935316 -2481.1723444057507 0 0 0
-5000.000000000001 -3406.540168638593 -4206.151724423353 0 0 0
-4776.034201391058 -2751.0650911140556 -5000 0 0 0
933.1740978794015 5000 -4748.510196687891 0 0 0
970.4698975991787 1772.7310148872116 -5000 0 0 0
-223.28655478697488 -5000 319.5022350733643 0 0 0
2713.3762639543856 2662.8183190072045 5000 0 0 0
-3406.894234198563 -5000.000000000001 -3802.0941656092627 0 0 0
2677.2072155388114 -5000 1216.8239505108556 0 0 0
4394.025574156096 17.549910125113456 -5000 0 0 0
-5000 -886.6934691959495 -4086.002232081258 0 0 0
-5000.000000000001 -1272.604137786014 4799.705897364629 0 0 0
-3653.055298446238 3690.550270811911 5000 0 0 0
-5000 162.01910803188457 58.9362788288563 0 0 0
-493.5126916940844 -3867.683014305161 5000 0 0 0
5000 -2534.5652678676697 -3980.7439218185586 0 0 0
2583.228851474463 -3392.3148822003586 -5000 0 0 0
2293.4225794362965 -5000.000000000001 2053.215907445743 0 0 0
2133.0058188797025 5000 -4263.221122912701 0 0 0
5000.000000000001 -2540.0854263175675 -4598.419358766833 0 0 0
-690.1903337287686 -5000 -4914.199272130709 0 0 0
4198.60215820307 -333.9511553449329 -5000 0 0 0
-5000.000000000001 1748.776629915823 -4557.006158659704 0 0 0
-5000 -769.4358498647043 -3383.4095152017703 0 0 0
484.2894177345015 5000.000000000001 4245.364460742738 0 0 0
-1303.4751900953588 -2402.902044077824 -5000 0 0 0
-2718.983184415374 2459.84333449036 -5000 0 0 0
2831.001532185358 -5000 -69.94625789576503 0 0 0
289.8399835870787 5000 -1871.061784620891 0 0 0
-5000.000000000001 -844.9256447353059 -1197.9843425555084 0 0 0
841.0798506071224 -4546.1687350395005 -5000 0 0 0
-5000 -569.9405006924362 -1579.2480328023646 0 0 0
-1705.0106575270233 3072.7743022482723 5000 0 0 0
5000 -1185.4499700411445 -393.92052003830713 0 0 0
-347.3592853859809 2241.9712865920606 5000 0 0 0
-2057.0828845058954 1359.4520587285292 -5000 0 0 0
3576.1968086362813 4868.560037514456 5000 0 0 0
5000 -2552.2457796857907 -923.4989508630233 0 0 0
4336.340073187062 5000 -3740.9382633589853 0 0 0
-1203.4321232714838 5000.000000000002 -4829.649454834709 0 0 0
5000 2635.338761673932 4189.8570112836815 0 0 0
-5000.000000000001 -1631.8150081819922 -3407.5374288519556 0 0 0
-1320.3549274803859 872.1520359963888 -5000 0 0 0
-2726.8286085346845 2945.544029560659 5000 0 0 0
5000 3043.490405214712 -240.92188349036542 0 0 0
-5000 -598.1269551432354 1933.4821947540531 0 0 0
5000 3596.1013373900673 -3333.382205261561 0 0 0
3861.5574170190644 5000 2874.151863099148 0 0 0
-5000 -3761.663385090262 -3508.080536736213 0 0 0
-2719.927755054053 3171.814986584622 -5000 0 0 0
5000.000000000001 -1191.543185241308 -3168.1811568179087 0 0 0
-2921.170512177595 3805.47612849878 5000 0 0 0
-5000.000000000001 -3010.6385834564644 2904.149637512933 0 0 0
1822.8248864518587 -5000 718.106462488932 0 0 0
1673.7451761373068 -5000.000000000001 -237.59207000843867 0 0 0
-720.1643640735019 3593.2689246690225 5000 0 0 0
-706.5979790438896 -1817.0364605342202 -5000 0 0 0
4363.288026937884 4541.012132326612 -5000 0 0 0
-1760.0876776315679 -5000.000000000001 -2911.0316829341614 0 0 0
-5000.000000000001 3573.8944721286634 -227.91106962967245 0 0 0
-5000 2864.3654463181115 -1954.1590739759424 0 0 0
755.2434810228835 -5000 -4361.63345322089 0 0 0
2257.505500343399 -5000.000000000001 -4950.742847263228 0 0 0
4697.5566864467955 -5000.000000000001 4045.7043792333943 0 0 0
3080.4644329848047 -5000.000000000001 4976.862021711125 0 0 0
1543.779916383223 5000.000000000001 -2617.7509630181603 0 0 0
953.4834027073734 -5000 3580.391080388981 0 0 0
1670.5936410793074 571.4230963827213 -5000 0 0 0
5000.000000000001 4101.37017681327 -221.14397735388184 0 0 0
1769.2693354418816 -1469.0454986267932 5000 0 0 0
-4448.402719315329 4718.2884345381935 -5000 0 0 0
5000.000000000001 3923.7672271783317 -4446.053094903964 0 0 0
5000 1025.1023694989742 -2229.833224429671 0 0 0
-3562.899696902791 640.9588854950662 5000 0 0 0
3634.9057446396473 4462.756551551985 5000 0 0 0
-4999.999999999999 2640.7940535064754 -2320.2125389688704 0 0 0
435.4452972465406 267.86130166978637 -5000 0 0 0
-1146.207198568718 5000.000000000001 4021.7558057148744 0 0 0
5000 1535.5296230574745 840.6643456968775 0 0 0
-3261.675456660648 5000 2084.6097157730765 0 0 0
-1054.2555833488032 2335.4916169007734 -5000 0 0 0
-2320.3892853671637 -557.1235043728375 5000 0 0 0
-1605.16997175532 -5000 4008.1161302552173 0 0 0
-1396.594730390511 5000 3737.3341893485444 0 0 0
5000.000000000001 -156.69820139030912 -1640.6360765176992 0 0 0
565.4176443654178 5000 4729.081429414956 0 0 0
-5000 -13.002858037596866 -4379.616514490739 0 0 0
3119.605359677042 5000.000000000001 -2701.9973693890483 0 0 0
2618.734802873213 5000.000000000001 -3085.7780240875563 0 0 0
4209.276074175385 -263.52684258647605 5000 0 0 0
-2323.4639583730436 3902.1645993470047 5000 0 0 0
300.7838853172866 5000 4590.094219702341 0 0 0
3349.426909512573 5000 3930.960855880269 0 0 0
-1688.6665936040972 5000.000000000001 3878.781739100247 0 0 0
-5000 -1003.2964246362892 3094.90158599564 0 0 0
-1113.1248418768519 4861.90314863897 -5000 0 0 0
-5000.000000000001 1088.5668667445736 4928.202405538505 0 0 0
-3928.860639654501 -3153.8018249691468 -5000 0 0 0
3927.7713601141113 863.1011824417401 5000 0 0 0
-5000 -1700.208590692007 -4316.189111823305 0 0 0
-2227.406509792154 5000.000000000001 3959.7207256405254 0 0 0
-5000.000000000001 1956.5178486316086 1432.6096309500795 0 0 0
2074.04973314798 -46.141671503959515 -5000 0 0 0
4127.862103808608 5000.000000000002 -2613.281830033885 0 0 0
-3662.8395824985755 -5000 -221.38027251762372 0 0 0
-5000.000000000001 -3216.4901579807015 3941.405894673154 0 0 0
4846.999170187397 5000.000000000002 -1459.5364902445758 0 0 0
126.42215244771069 -1218.7068146740585 -5000 0 0 0
-5000.000000000001 -1809.6483018294216 3234.3124264079684 0 0 0
5000.000000000001 2157.6855039026987 -1120.677197408247 0 0 0
1808.7728073861342 -5000 -1383.5856627596481 0 0 0
2589.349517407524 938.5510328870973 -5000 0 0 0
5000 1024.3258327358976 1928.0786239207164 0 0 0
-2400.104528013666 -4202.339965478675 -5000 0 0 0
-1243.007437439173 1572.3639477846973 -5000 0 0 0
5000.000000000001 -559.9508181027843 -4097.869046543665 0 0 0
2478.1109194635 -1862.1217537960601 5000 0 0 0
5000.000000000001 -2661.91654264085 -1876.0943305101694 0 0 0
3204.3365101350187 5000.000000000001 -3231.107941004964 0 0 0
5000 -2605.0218602665786 2698.8495223684477 0 0 0
-4151.1188769485425 -4771.701260363545 5000 0 0 0
2460.8467088364287 -1004.7997608803216 5000 0 0 0
-481.13207588024693 5000 844.6491443759998 0 0 0
-2284.9755581864038 2708.398773199133 5000 0 0 0
-5000 -3297.105891768403 -2711.2890396785406 0 0 0
5000 -2394.929242969923 -2605.757400209903 0 0 0
-221.6831665587065 -5000.000000000001 2038.0527186384668 0 0 0
-1085.720488841515 816.2872194388347 5000 0 0 0
616.7183982286215 2735.258004504842 -5000 0 0 0
-1457.603157711034 5000.000000000001 -4479.272505025971 0 0 0
5000.000000000002 1615.016621823898 2667.0810196861084 0 0 0
2363.3155260995554 -5000.000000000001 2567.3675898310585 0 0 0
5000.000000000001 4996.693846768089 -4525.823388027877 0 0 0
-3562.9695134996296 -3293.2895646864963 -5000 0 0 0
-1809.9414868326564 5000.000000000001 -3100.2119081561514 0 0 0
4674.165481549764 5000 2567.3016149398413 0 0 0
-15.102212789983923 5000.000000000001 -2001.0162037802008 0 0 0
5000.000000000002 4881.034013759829 -4810.480158687794 0 0 0
-4744.173148527823 -5000 -2227.789367189533 0 0 0
5000 520.9402812276662 1780.3306117562254 0 0 0
5000.000000000001 -3392.2784022950946 -92.18293944941098 0 0 0
4521.189960428137 -4501.041960670167 5000 0 0 0
2088.1988141165093 5000.000000000001 4160.784417372562 0 0 0
5000.000000000001 -3647.9878512434607 -2198.22809901006 0 0 0
1818.525505633338 1416.5211545380398 5000 0 0 0
-3041.0893252310757 -5000 1852.3668203746752 0 0 0
2006.2101292452826 -1796.333131751201 5000 0 0 0
-5000.000000000001 -3674.8645634739037 -4645.516448489166 0 0 0
-4260.491309343135 -5000.000000000002 4311.795546352769 0 0 0
-2616.283138103915 -4246.471784658019 -5000 0 0 0
2821.3510652172145 4709.130702404832 -5000 0 0 0
-5000.000000000001 3906.1258495348166 -558.8874107035288 0 0 0
-4180.121873123628 3293.395209262797 5000 0 0 0
5000.000000000002 -290.78996055330475 -3091.7384373451305 0 0 0
-735.286169562158 5000 -998.3272738746957 0 0 0
5000 4078.6019848094315 1301.4373585122814 0 0 0
1568.939837892046 -3250.5080980483945 5000 0 0 0
-5000 -1934.7446397574367 4990.9563176291795 0 0 0
-2575.449253234756 3336.2293794454213 5000 0 0 0
-5000.000000000001 126.75257172749957 2727.601308248752 0 0 0
391.2390421103869 -5000 3663.3865342770646 0 0 0
-4143.735859144357 5000.000000000001 1373.8284382847264 0 0 0
1053.5992244508116 -687.1692024577269 5000 0 0 0
-4553.858744704099 2207.664357129328 -5000 0 0 0
1124.290226085246 825.8523213797489 5000 0 0 0
-3497.129705966046 -5000.000000000001 -1620.5502518548399 0 0 0
-3243.1296390682155 5000.000000000001 -4261.404471127971 0 0 0
5000.000000000001 3501.962478506365 -393.1202997421476 0 0 0
3683.3755200185724 -5000.000000000001 -3782.7873643407547 0 0 0
3355.4240401626666 1022.2070273115332 -5000 0 0 0
3709.7064446237446 5000.000000000001 1621.5499567899624 0 0 0
-3121.9952917294554 -1822.7192372189456 -5000 0 0 0
-123.59092250633603 4373.064199170593 5000 0 0 0
-5000 2190.4950343028154 975.9392337761542 0 0 0
2361.7963666849782 5000.000000000001 -2735.0705898064525 0 0 0
-5000.000000000002 4258.322016921977 1567.447346899402 0 0 0
-2413.2340482497766 5000 423.1624563332473 0 0 0
-308.70256261373925 397.13289840013385 5000 0 0 0
-4232.504590988399 5000.000000000001 -3623.2510295804836 0 0 0
5000 -2516.8452120930174 4392.913714699873 0 0 0
3079.335148483203 -5000 -2977.821523313327 0 0 0
-5000.000000000001 -3439.41765764701 -317.5185645546385 0 0 0
-5000.000000000001 2919.678365774303 -3832.3618978412655 0 0 0
-902.8274779686835 -2557.483849840929 -5000 0 0 0
-3350.075035519001 -2549.0309752286557 5000 0 0 0
-3197.206476795117 5000 3394.5340422887984 0 0 0
1374.8356450231895 -5000.000000000001 -4178.01959867497 0 0 0
-5000.000000000001 3457.515150521657 1493.6107986111244 0 0 0
221.03456557776758 5000.000000000001 2992.641710672827 0 0 0
-3536.4377864340495 -1681.0887524304399 5000 0 0 0
4314.933195391173 -5000 -1777.6807429165024 0 0 0
2703.366939771627 5000 -1501.0842944034766 0 0 0
4281.632206068203 -5000.000000000001 1962.9793972535888 0 0 0
5000 -1997.098530175677 2819.274551150982 0 0 0
2585.4806031964163 -5000 3596.575762423024 0 0 0
-1335.0320217828403 -5000 -2861.8735577267944 0 0 0
-5000 -20.04614333624295 3947.027762861469 0 0 0
4819.609313187941 -5000 -699.7052373828851 0 0 0
3237.2305720286604 -3007.550518031954 -5000 0 0 0
4721.807991024949 3041.2278734339534 -5000 0 0 0
-5000 3341.673788773676 3453.09874902158 0 0 0
-25.42644041843141 44.37029130960309 -5000 0 0 0
960.0500138290472 5000 -3458.1669412824176 0 0 0
-5000.000000000001 1299.964569648711 -3482.8222908465304 0 0 0
5000.000000000001 -409.06566912730455 3755.5134616585065 0 0 0
-2100.4438200501927 2068.0718017127697 -5000 0 0 0
1885.1326764026344 2179.1068730778557 5000 0 0 0
-2537.243150890453 -5000 677.8586589162517 0 0 0
5000 -4186.620115855067 -3987.621846137392 0 0 0
-5000.000000000001 -3803.1329721226994 1768.1421883255912 0 0 0
-3595.511870736029 -2382.8064870940543 -5000 0 0 0
-1280.2816677281046 5000 -496.3201310002805 0 0 0
-4497.180185046595 5000 1126.1138208797736 0 0 0
-4302.752762708232 2788.226785039635 5000 0 0 0
5000.000000000001 -1963.289960736077 -2532.372510774235 0 0 0
3643.50632235571 1881.392135695271 5000 0 0 0
-2556.8118493802895 5000.000000000002 -583.259107350958 0 0 0
-4388.638292154595 2128.2312819400017 5000 0 0 0
4019.7804425935174 1642.1163764978369 -5000 0 0 0
-3551.045343536439 1146.5307679709658 -5000 0 0 0
-4511.311724554427 -4566.701310484996 5000 0 0 0
953.6482793994471 -5000 4292.065989827768 0 0 0
-5000 -132.67568085932885 408.12402749812463 0 0 0
-3129.811565452167 -5000.000000000001 711.4919813869011 0 0 0
-2932.6530815719852 5000.000000000001 -1058.4057150680603 0 0 0
-3363.58979733828 768.6970130394666 5000 0 0 0
455.5605470461587 -2374.4892549582246 5000 0 0 0
-1590.252894251725 -5000 -3652.205983480535 0 0 0
-4944.384177189499 5000.000000000001 -3021.1973926151168 0 0 0
4284.171475695526 -3060.5270099176687 -5000 0 0 0
5000 3621.471640011983 389.3395445259939 0 0 0
2622.977047051758 3718.5246584557576 -5000 0 0 0
-5000 2706.787277807848 -4874.814520531714 0 0 0
4180.6735932737 5000.000000000001 3335.061207569698 0 0 0
2466.3878872368414 -5000 3023.9924080781598 0 0 0
-827.4188758001771 5000.000000000001 4161.305790376527 0 0 0
5000 4077.5186750467465 -628.4234093634518 0 0 0
-3878.0107017969763 478.1846168815082 -5000 0 0 0
-1471.9023119993053 -5000 -550.2387534595276 0 0 0
2292.571229530765 -5000 4516.263431644189 0 0 0
-5000.000000000001 -517.229719793997 4867.644160924315 0 0 0
-5000 -2609.6696861133314 4812.6152715704475 0 0 0
3967.9915453158264 -5000.000000000001 -3038.0742475567736 0 0 0
322.42969857641947 1040.971342493301 5000 0 0 0
4768.194327954294 -841.9080245503728 5000 0 0 0
2702.086510929319 4672.983367775094 5000 0 0 0
3606.0879466152214 5000 3492.979536993886 0 0 0
3841.598508340119 -3329.488401454637 5000 0 0 0
5000 -1630.6687736095248 -4547.8574650119335 0 0 0
5000.000000000001 3171.7154794240914 2546.202758115812 0 0 0
4024.15034315742 -3758.681588228179 -5000 0 0 0
-5000 -359.6403847260585 -1340.272774146997 0 0 0
892.0223013926397 4801.978520025489 5000 0 0 0
1800.1272421330796 5000 -4318.905477094886 0 0 0
5000.000000000001 -3463.3822592270467 4065.781640385176 0 0 0
-5000 4458.59950941922 3930.3043712537296 0 0 0
5000 4760.893997624933 -4411.4499489830105 0 0 0
1912.2146102191018 -1394.3224709454562 -5000 0 0 0
-536.3788202108717 2794.0605198005496 5000 0 0 0
-751.1247348744073 2455.552153967112 5000 0 0 0
-4014.358361724 5000 17.14512008109341 0 0 0
-5000.000000000001 -793.3260108313178 -2237.9062963826154 0 0 0
-1917.6643653389365 -1051.6157169135367 5000 0 0 0
-1032.4739087524224 5000 -3776.731388073756 0 0 0
-974.4164049506267 2547.4614731722795 -5000 0 0 0
4029.7132074039946 1276.7497246511043 5000 0 0 0
-4080.6601005981956 -5000 -1962.9864194258048 0 0 0
3051.0825421899017 -49.4070560901464 5000 0 0 0
-5000.000000000001 3230.825512777468 -610.371402283373 0 0 0
-4099.585627717705 -5000.000000000001 1103.2608878348303 0 0 0
-4209.6395880028795 -2151.553433924705 5000 0 0 0
5000 2109.1396487826196 -2509.118280144929 0 0 0
2728.001762986182 5000 1106.4548679191873 0 0 0
4318.262021671171 3412.132090149509 -5000 0 0 0
1320.778278783323 5000 -4443.246493788085 0 0 0
5000.000000000001 1263.436417218035 381.0413067140805 0 0 0
-199.32301491467388 -1019.3133242518234 5000 0 0 0
-5000 -4260.323801664786 2957.5973227422664 0 0 0
-5000 -3548.6298746190178 1745.2422374604469 0 0 0
725.8421954353555 5000.000000000001 1100.5656961819934 0 0 0
-965.2510685684392 -995.7009581828961 5000 0 0 0
5000.000000000001 -4321.553306338171 -4673.212626796781 0 0 0
-5000 -84.60428802511044 -4824.309004388895 0 0 0
2061.2958059931616 5000 4831.796400170678 0 0 0
-2205.378491061451 -5000 2392.0888534710234 0 0 0
3178.5319830191 2049.998071533627 5000 0 0 0
3237.409697956132 -5000 1585.0273829815105 0 0 0
400.9279075082975 -5000 674.8523030778649 0 0 0
-5000 4585.660351247368 3168.2446264513965 0 0 0
-2044.0196092445494 -1379.698829902196 5000 0 0 0
3745.4007420434614 -5000 1031.150457463763 0 0 0
-2025.9329942175837 5000 2529.1155593139656 0 0 0
