ply
format ascii 1.0
comment File exported by Rhinoceros Version 8
element vertex 768
property float x
property float y
property float z
property uchar red
property uchar green
property uchar blue
end_header
8.804440625984306 88.19708463060583 19.6025481426592 0 0 0
-77.0108169783107 -16.538794409545485 47.3214974729813 0 0 0
-62.69421128806836 63.467584495791684 13.781557830099862 0 0 0
-83.99070225601805 -8.75375185518557 33.36173268529676 0 0 0
-41.88019685194174 -25.41234743170974 77.79850557855978 0 0 0
-20.645231366141672 -57.555615050603926 -68.86922912843046 0 0 0
-36.75103538236644 -63.96127654824605 -50.959024823069925 0 0 0
10.68291854115089 -88.19708463060581 0.7275590197529311 0 0 0
83.09550549829142 29.663569029449697 32.02015988490081 0 0 0
51.468233729635934 40.12104753161727 -62.23064930388179 0 0 0
-21.635055433069862 -74.4990170650761 46.266382172366136 0 0 0
-83.12694421339219 29.573337031429812 -18.974967461157455 0 0 0
19.215338320669574 43.19838512224651 -74.62071675720898 0 0 0
-30.928240667988927 -39.442688661799785 74.59129460796012 0 0 0
-8.738771392907857 -79.73906471694187 -40.685636798034054 0 0 0
17.637252127333046 -57.31060318353811 -66.62715163914041 0 0 0
-68.23393229256017 -56.01694503272397 -25.08643981797032 0 0 0
-84.59566015955679 -25.05310087205565 9.056626610061542 0 0 0
16.953503532819674 22.820675512205305 86.91504462677887 0 0 0
-79.56105655741291 -0.06780279410756407 -39.028329864492775 0 0 0
-9.621519298079505 -61.00931361897203 -69.06638988710262 0 0 0
21.845578795310125 -85.68502682571773 24.982335797463442 0 0 0
-30.712865200797 -15.279609367184745 -82.77481530752698 0 0 0
-61.49390379593596 48.86358400395838 40.79223457017474 0 0 0
-54.07087923345883 -43.086865855759996 -60.994231728684156 0 0 0
-77.19025890557538 24.935679280874194 -42.86436067295524 0 0 0
56.70290516894476 -30.174713375835353 -64.83790032578503 0 0 0
73.76254066090075 -55.425973665666085 -18.317123908263586 0 0 0
-67.40308134300088 -3.4934616663011564 -58.70034508471193 0 0 0
-3.475150874807003 -7.153115051432221 -90.04338383674622 0 0 0
63.62242917055121 26.057623689498953 -59.69571139224962 0 0 0
41.03374216470908 76.80484734739798 29.05344520375214 0 0 0
74.42337971005537 54.945844090555916 8.58173379619763 0 0 0
-57.60330553899715 -67.16634466906417 27.95666009005624 0 0 0
35.6678605349338 80.15589062482358 -26.83361966101119 0 0 0
-45.11037656953201 -66.76965562313228 -42.45770184388809 0 0 0
-35.01785223362757 -37.687645718578985 74.84183668254504 0 0 0
78.20287388399926 10.430789498417836 -44.9373846466437 0 0 0
48.302612377211844 73.92369194719075 -12.322902534842026 0 0 0
58.05958417563545 59.22264597020572 37.780352621994744 0 0 0
-52.129419168802656 -71.14335190046097 -21.546563939618633 0 0 0
-52.804437667724 -63.5646996230209 38.18530289452552 0 0 0
3.321109847175417 72.56279867551783 -57.75871794902793 0 0 0
15.904845906622668 36.26356937149189 82.55595728710664 0 0 0
-37.63820800186698 -81.67183432380993 10.605059000238196 0 0 0
17.363316018872226 48.76079108549635 77.28684141731043 0 0 0
-76.77664840345966 -49.11754449083138 14.826383643404249 0 0 0
22.052462554092646 42.28642538701377 -74.61491076400772 0 0 0
-45.56465275991051 75.91293482014702 -1.7344602272032859 0 0 0
47.09832687610953 -74.79865726479262 -23.029759446920178 0 0 0
46.047088946268616 36.37675546120508 -72.88805135191299 0 0 0
-61.054217931482796 64.65910839313818 1.4243694576924 0 0 0
20.331833090906727 -13.03473361191147 88.78083056021019 0 0 0
88.07756343934273 14.336901507616105 6.650859642726319 0 0 0
-22.907100685002735 49.21063580761812 70.38174112972906 0 0 0
-17.343272506400638 -8.462734004139861 90.04338383674622 0 0 0
47.38494631538542 -48.54411138693249 62.35473836011739 0 0 0
35.25756197351456 -15.688838112117928 -81.89151900262952 0 0 0
61.60948258945005 -44.0193459823753 -45.2480830829671 0 0 0
69.70705943633885 -20.642869618724774 54.97243058251181 0 0 0
-32.47521340661535 -55.61612334320778 64.78934385764504 0 0 0
8.796932711300286 43.892846792601944 79.56238922117562 0 0 0
88.7799982003876 12.1750312154888 0.2393857539803328 0 0 0
-59.385268061737285 -62.56298998479594 -31.708541595343352 0 0 0
-5.423085707874922 88.19708463060583 25.340931543335433 0 0 0
55.7246557145914 -68.53126046013601 14.18480402292882 0 0 0
32.03548809825556 -67.40846879268054 -53.32558716269496 0 0 0
12.307581832808374 88.19708463060583 -17.597885128077095 0 0 0
-79.6061722583057 -11.180933111712022 -38.955331134113564 0 0 0
29.465504634461215 -66.01490532258192 51.4415807318139 0 0 0
-60.036548465464996 32.29513409526126 58.45746583011183 0 0 0
27.32343939951513 31.239542723376342 78.67174420294633 0 0 0
-0.9164981544509851 74.16873950028227 -53.16862440099009 0 0 0
-63.95885193657792 -3.451735534539049 -64.27322478796731 0 0 0
63.82416131812684 -62.646625947130914 12.171258527396336 0 0 0
-58.38926813739514 66.5953064504652 -13.73078564841742 0 0 0
19.819872042844256 59.50602265414003 -64.91987336288541 0 0 0
-78.82161069887572 -38.563091185670395 -28.473451562276217 0 0 0
-55.79206361988557 -68.48228658438953 -2.76134505088514 0 0 0
-39.9948511811683 -52.91790343232107 -64.46091358191808 0 0 0
44.94163189354623 61.81210143435585 -50.14466713264061 0 0 0
48.16767314811098 74.02173002354148 1.4838720275221604 0 0 0
-53.356358511664624 -55.34981230847637 -49.943119752593056 0 0 0
57.569099692897375 65.52357191799753 -30.085282518991548 0 0 0
12.977551921200636 50.803520572488054 76.29882463035864 0 0 0
-3.63233072892373 85.48877105193156 36.48892098439194 0 0 0
-14.34750601978785 83.82327450056982 33.03454234404314 0 0 0
33.84575318374027 -76.72111320344553 32.776293989056235 0 0 0
85.74731404956674 -21.508679087554782 -27.374975584545062 0 0 0
32.45324303785608 54.73214786953985 67.31009198257604 0 0 0
54.19521355326682 -58.076652986859095 45.38023065919086 0 0 0
-77.42850164107499 -47.111342918469354 -1.3184737920567215 0 0 0
50.78075423864216 51.34265854853586 -52.45818763049577 0 0 0
-31.574761513956197 -66.82646787853976 -49.13808556818829 0 0 0
-85.4956583082982 -5.4689834410941565 30.351821824335758 0 0 0
80.66181296062003 -37.16023629931935 -6.467689758532146 0 0 0
7.63854296223467 -56.35519503269478 -69.0983095783928 0 0 0
-42.18068711555897 14.138229363918034 -77.45553429906616 0 0 0
61.40716428792685 43.31449497830529 -46.18327412286719 0 0 0
60.70564630633135 -64.86610106800673 26.864655619033947 0 0 0
43.18033423618731 19.655167444521354 -76.99497649013207 0 0 0
-83.52764935120891 8.116582175704785 -32.610248528098126 0 0 0
-69.94073234974303 -27.375343026624957 50.1717212379381 0 0 0
-8.125664356290901 51.13118955518476 72.0758707147804 0 0 0
-1.2014712158807903 82.56490386593198 41.30723915204017 0 0 0
-63.08522741109192 -27.33903351412464 -62.20779119179218 0 0 0
-52.03204396628123 65.77599450882533 -39.82919426994218 0 0 0
-13.950730480396953 -62.05917075793802 64.54007682436121 0 0 0
10.99800583124701 -75.13437185852982 -51.631922635893744 0 0 0
-58.65086540762102 46.788869760599475 -51.440418954605036 0 0 0
14.256176703606048 -61.91309425601918 65.35828516789495 0 0 0
-14.712990810770155 -79.55908166517258 -37.97549199869765 0 0 0
27.90787483787923 -76.77196073107277 35.6669874136542 0 0 0
72.73555572034603 -25.705656637200903 50.07222113622635 0 0 0
76.64719638360147 49.51595046833281 12.75094628352528 0 0 0
-35.53275793877861 66.2511235193119 -48.044451030232814 0 0 0
-42.8982779527032 -77.85017126298598 25.1782622651061 0 0 0
25.968687604675168 -39.44380420800465 -75.53782908518446 0 0 0
-90.00731130597573 -8.397746146097237 -17.440325804831076 0 0 0
-36.67392544469439 76.38977653352494 -31.872082365918324 0 0 0
43.384020117968625 -77.49725683143826 4.142322636989096 0 0 0
63.10924700674521 -57.79550563799132 -30.18296285553249 0 0 0
-24.883937528740738 88.19708463060583 -12.839336648415307 0 0 0
78.07857390508303 -45.11062615330086 2.110458742760798 0 0 0
-22.60605939908813 64.2730545391224 -57.55173709352831 0 0 0
-15.333456881963576 88.19708463060583 -23.986896122357106 0 0 0
55.04400452302224 51.87125722301809 -46.37479437540493 0 0 0
-59.91757278521203 -39.11094828188757 52.1309839648698 0 0 0
-75.67560105194552 -30.320432829185265 39.863735668611035 0 0 0
90.50709523623794 -6.859570099747396 14.685803394464788 0 0 0
64.35134030035705 5.554678894427454 63.638165336878004 0 0 0
14.878812959694617 -74.26669616814287 -50.88386961747202 0 0 0
54.518007773227595 42.00656669267045 -56.44520903047054 0 0 0
-13.387047403246786 -88.19708463060581 -12.937032021659782 0 0 0
-48.16164322449197 69.64712450839438 38.47807021085427 0 0 0
-91.79793321211346 -2.8867792004147503 -16.224419862137367 0 0 0
27.687139698867785 -18.143138633294196 83.24744048334661 0 0 0
-5.888989404851262 -35.61611356898166 81.62256935515362 0 0 0
-83.59291635382903 28.139220914324593 -25.139775929327797 0 0 0
-13.54804986587493 81.35605916517079 38.221555984928834 0 0 0
-13.492447821126266 44.33873378145851 75.04341133946843 0 0 0
80.42707297289071 -9.042652298521038 -40.48898830679647 0 0 0
-63.52397615231672 -46.715845056428336 -43.641406345341814 0 0 0
37.81495277833463 -67.58622911497787 44.848836866283506 0 0 0
16.3076327166448 85.08036092940605 -29.4319970344815 0 0 0
34.42838290810147 18.377383627821242 -82.40397984457456 0 0 0
53.66450789089194 70.0280452279356 15.328384828767685 0 0 0
-34.7356659782578 34.67376568180118 -73.71807626730887 0 0 0
-42.06673625056265 44.77342116043447 69.3307060400329 0 0 0
84.48974367176277 25.37907942293651 -14.008507948284048 0 0 0
78.40546617383062 44.10455628388018 -2.3339806981013105 0 0 0
73.02691467766321 4.021533371403057 -55.28929878223458 0 0 0
57.76061831702477 63.053825191678406 -32.18344961186599 0 0 0
-13.210125708832052 -63.11287114018266 -64.03504373712302 0 0 0
25.290421805230526 -46.21113762190665 -71.68962797819877 0 0 0
-80.21205724529452 38.54443857689613 -8.296164806616554 0 0 0
-46.62820807811464 75.14021773975357 12.15590427486973 0 0 0
63.57295332247791 -21.735572879427487 63.99950408974539 0 0 0
8.896356603799795 -64.12974061312434 64.62712727189796 0 0 0
75.32056889920182 14.802460254852853 45.88958235780234 0 0 0
-50.14623699506397 72.58422087729564 18.9377844754425 0 0 0
-22.813668221840093 -88.19708463060581 -20.532929751957766 0 0 0
-69.21566995768107 -12.887279173341328 -55.76751538345404 0 0 0
40.655040525792245 1.4423692241770478 82.83039803031127 0 0 0
24.46547463788747 69.39145530423951 48.74561936860234 0 0 0
79.12627668862692 -3.574867078063268 -43.090579800429325 0 0 0
-14.82528366219678 -67.79752512791696 -56.01852242450529 0 0 0
-29.069042727567425 87.89769536665202 -7.376532735190288 0 0 0
-38.00657349125909 -51.249465883693205 -66.06114783246917 0 0 0
-53.07541170353048 -70.45605060225644 12.037771368604293 0 0 0
65.01451442274946 48.30007748048481 39.367288162267755 0 0 0
-44.45844237887172 -68.18927081162433 44.16260663864877 0 0 0
32.139986463385426 -85.66652391209406 13.764026107645122 0 0 0
-52.35780592519045 -70.97742299328743 30.356572061327345 0 0 0
-71.8847883842279 51.209205165787395 24.959574510733635 0 0 0
-78.36048523781453 13.46777805206133 44.62216206925305 0 0 0
7.644199723518852 -30.950452203940536 -84.02976070366189 0 0 0
-40.5044077320231 60.46881474990222 57.230609277046796 0 0 0
64.54620342628925 62.12203291026865 -4.455712419770354 0 0 0
-38.86752899244788 -74.96822486766409 34.72364318249963 0 0 0
61.41605937149777 -24.99962813999445 -63.59009981332688 0 0 0
-36.37221972017537 73.37010553802455 -36.66973172789238 0 0 0
-49.95625414576585 72.72225073192118 8.596543173276325 0 0 0
49.31255718372002 57.202148267129985 -48.807377594115266 0 0 0
-26.10679653921581 -76.69240976633114 -36.689943096765944 0 0 0
56.11488190493759 -68.24774373958233 25.586911443161448 0 0 0
-76.7205033094296 49.29033423099945 -15.93203242825258 0 0 0
-87.84057473602456 15.06627463801415 -19.924860294727903 0 0 0
82.1497477316266 -32.580848238785066 -23.883088364552545 0 0 0
-23.759974501435426 42.49964501088975 -76.3630059333278 0 0 0
-2.0439587465238844 24.491368439684482 88.89586511069379 0 0 0
-5.140850380306716 -7.970184867965969 90.04338383674622 0 0 0
-76.57240663486446 -41.48193855095711 28.074581770478147 0 0 0
19.543593585532992 67.67008037057582 -60.17392566606692 0 0 0
67.9094401357001 -42.14371713515742 -38.785161581228806 0 0 0
-3.4805824142289765 88.19708463060583 -27.454994954048164 0 0 0
-78.67750658710682 -15.60329422691243 43.988119632634614 0 0 0
-88.16980768879162 -14.053003409783363 -4.510312442783809 0 0 0
81.53635957522513 34.46865468209758 11.182214814831411 0 0 0
51.8089045850889 -57.79401339627727 49.57362215963788 0 0 0
75.06647332630776 -17.795919168089355 46.3007175911952 0 0 0
0.011226955279362016 -16.738828794767656 90.04338383674622 0 0 0
-0.63378602421274 24.198929899681815 -89.57915980394682 0 0 0
-42.1753023247034 78.37544367525985 24.17173362233665 0 0 0
91.10689927808617 5.013567997153741 -6.207806556167505 0 0 0
-17.500249042865647 68.2924313767784 60.19836097607415 0 0 0
-34.07875986322478 -10.628860616870222 -82.78135090464788 0 0 0
-8.748700373018167 -54.486433412411216 -73.32642439191105 0 0 0
-51.48386687960433 26.11192238358402 71.86311112225322 0 0 0
62.80283612053003 -52.512387338139746 37.99399176181067 0 0 0
25.517416553382233 37.0707616786481 -77.01885341404929 0 0 0
39.47004419422359 -44.98136454751373 67.60643311511157 0 0 0
44.520668399450614 21.925911235675322 73.45650299850915 0 0 0
85.26321329632272 -13.108691202855063 -30.816711656209108 0 0 0
-31.383168123278935 -86.21638508907971 -6.5349139417835715 0 0 0
4.394118044907238 -80.34809284943577 -45.796262028259235 0 0 0
-40.180821148717186 33.084861616194246 76.56124584645143 0 0 0
-11.509723755626872 88.19708463060583 -15.659559467004629 0 0 0
65.49280594989013 -61.43428619127923 -7.202438787119613 0 0 0
-30.068258114611684 86.08113489347662 19.023878904195154 0 0 0
-47.45524250470912 72.49862369846454 -32.469292120846966 0 0 0
-21.1164323972514 1.5534807831829043 -90.04338383674622 0 0 0
-38.62141992268024 -0.7073756141178373 -84.11421043863308 0 0 0
84.22764438081053 -3.271326137183418 -32.88784863150563 0 0 0
45.19847391966171 -76.1789801846631 -10.55861624228094 0 0 0
65.50376387445755 60.20257665393967 -24.759240042110527 0 0 0
-68.8247524111205 28.774616420752583 50.30176992460902 0 0 0
87.90870441344511 -8.239488590149048 -25.525731608028764 0 0 0
66.32418719433383 -13.167725516848169 60.44603231793022 0 0 0
1.8668226846646192 -12.54385164223369 90.04338383674622 0 0 0
83.33317354631552 -28.938637483277276 -20.275997265752117 0 0 0
-68.98753271322987 -58.89521893604345 8.51957127796578 0 0 0
17.995502956702644 -39.9305603724546 -76.77446351511146 0 0 0
-63.26536148598544 -39.414644063046296 47.45984059696574 0 0 0
-64.57862939492117 62.09847517246199 19.68101114144331 0 0 0
-4.0839719986775656 63.99348136327484 65.28750055559864 0 0 0
-60.85781587457433 40.824006918543205 49.270974774637054 0 0 0
20.017121679181038 88.19708463060583 -8.665977252382014 0 0 0
44.9055379513066 -1.3464817068974284 -75.92874196341222 0 0 0
-66.1323165027311 52.104847153039636 31.63785076890033 0 0 0
86.55290226724443 2.0649156484464593 -28.237334780082026 0 0 0
-33.27516980237902 -79.79204948162545 29.00445063282111 0 0 0
-36.395295089547886 57.968943776130395 -60.35814818637532 0 0 0
4.623071502254853 79.70167159673697 -46.88432737404194 0 0 0
-40.76120307712176 -35.61779631012689 74.96158129311159 0 0 0
87.2573184742185 16.861357697874684 -1.6835688965441094 0 0 0
-8.08430183355939 -88.19708463060581 -17.951386591665532 0 0 0
28.009601724562756 -85.22470099417168 -21.925232472891235 0 0 0
4.132613896802162 -88.19708463060581 -19.794468733718006 0 0 0
-66.6059785842684 45.02906390756496 37.74728739501246 0 0 0
-41.70173290401271 78.71951092845302 9.91312527716995 0 0 0
-6.145627191822378 -3.838868269711355 90.04338383674622 0 0 0
-32.270906308685355 -80.85956793279702 -27.19528973641812 0 0 0
56.43524103942089 -68.01499194706028 -11.871789907372577 0 0 0
-88.565873636602 -12.83403367437141 -22.591977247927638 0 0 0
5.048986455749013 -1.8741525015478646 -90.04338383674622 0 0 0
43.214496229552495 -24.88670277240469 -76.97386321724244 0 0 0
-60.690625180641675 57.95640831599269 33.19595190213509 0 0 0
-87.00544159677914 17.636553138954877 -6.268816331479547 0 0 0
-52.59219525623659 70.80712696298461 -0.38578956560876776 0 0 0
70.1955042534487 10.461776394602945 54.18211034357666 0 0 0
-66.40434578504322 -42.45249408213628 40.46169107920133 0 0 0
-44.52989023860904 45.30384560404748 -64.95936177558247 0 0 0
-17.782085261679022 10.026265410442049 90.04338383674622 0 0 0
5.97988786263825 88.19708463060583 -13.962419636792628 0 0 0
-85.85137490260577 21.188403964522973 -10.713417446210684 0 0 0
9.443543572645465 18.31956288119823 90.04338383674622 0 0 0
-0.74612094347777 14.929628979525116 90.04338383674622 0 0 0
-0.07108912209670493 55.993724891282646 -70.78318481304899 0 0 0
57.81221833287047 -54.03804061607609 -40.69042305222541 0 0 0
-71.24425577581447 -46.29184707125734 -31.64817182921282 0 0 0
-70.6319438075557 48.0274451271164 -30.598595621105773 0 0 0
-78.07315282760463 -45.127314577415135 15.543997380011973 0 0 0
52.727188378022745 -25.025430922760332 68.22727638530131 0 0 0
-53.49892704788053 22.048638493619343 70.61773545675655 0 0 0
-67.59737351160602 15.203844802128224 -58.385973782701114 0 0 0
13.995225052894945 -86.4155472984397 27.783357845624856 0 0 0
-64.74343897453389 -34.067192830906514 50.61073955117344 0 0 0
-19.966059358577862 -88.19708463060581 -19.226532184812108 0 0 0
-5.649522955229871 7.82312511177652 90.04338383674622 0 0 0
-72.18851007147862 56.424125680217614 19.602314712792154 0 0 0
-80.31975895908779 38.21296567495014 -13.207788393681573 0 0 0
-26.478270644775005 -3.5586596136868778 87.31741940662164 0 0 0
-81.23403436743158 35.39912424446267 24.890297427167642 0 0 0
35.32847463472861 41.33320933993917 71.00248781339522 0 0 0
66.80183451617665 -1.3806254067748824 -62.39608654413747 0 0 0
56.12492993699912 -66.36078257146569 -31.17949049408462 0 0 0
86.19623671544255 20.127033933013315 -12.86381725857039 0 0 0
55.94896479195331 -15.88050500288988 69.93847625284042 0 0 0
22.341880365754974 -78.38286341579415 -38.442025333953985 0 0 0
-50.751803165100604 68.88999495293646 -36.37412085598282 0 0 0
50.495280991305485 35.032443959164695 -68.34380925312638 0 0 0
16.756560142393113 83.19709354942367 -32.736732251155566 0 0 0
-16.229646688186207 82.67658456756014 -32.41981960083754 0 0 0
-47.41764695022191 74.5666578494973 25.430690500552004 0 0 0
62.82683426088252 -63.371225494868455 24.53988642426932 0 0 0
75.79140850010975 52.1497998606845 -10.153014412097846 0 0 0
-2.5855706606303386 -88.19708463060581 -0.5712328521216001 0 0 0
-61.8660649904205 37.182867941353386 -57.53064859461543 0 0 0
-26.365670435658817 -58.91850264589171 64.01507289529786 0 0 0
-53.976950625368566 25.777834210072896 70.32230064031306 0 0 0
-66.92177459961948 -31.039991323728877 -56.57172313975263 0 0 0
50.84193901384454 61.1091947011285 47.24097616919999 0 0 0
-15.141235304435071 19.9756738676107 -88.85468599093907 0 0 0
-57.93866112393634 66.92269260594372 0.47763356820421876 0 0 0
-81.76310423939543 33.77081262530473 15.83965244729216 0 0 0
12.576192533439666 88.19708463060583 5.28720044824485 0 0 0
-70.54276658501243 0.8279495723489809 -53.6202281426792 0 0 0
-61.29319862228703 35.42125553735025 53.83937219512025 0 0 0
14.563602844669393 -78.35111481213745 -43.309653886451585 0 0 0
75.47160768067508 53.134047413758864 -18.388882811343624 0 0 0
-42.82283393777699 55.91150067378335 -60.31045795662668 0 0 0
85.94673362225089 20.89492866764078 -26.847112387854004 0 0 0
5.408655853127417 -7.822359542607605 -90.04338383674622 0 0 0
-8.341301039851047 87.85320182722367 29.081202959054696 0 0 0
-36.876354829882594 82.22535302012962 10.947813876759446 0 0 0
37.53460636544233 81.74710495275605 -5.672266462928096 0 0 0
-75.99012221230763 -51.53822364133867 17.381142421966207 0 0 0
30.44842982543534 23.345155351705394 -84.14482190724841 0 0 0
8.470455383980244 -79.98762747300957 -43.96259332346522 0 0 0
68.2146632282715 39.29182323716927 -41.09793109249989 0 0 0
50.02709093752377 -54.52887128108866 56.295061466733856 0 0 0
55.058394334932004 40.036987605403425 61.60840706774375 0 0 0
-43.21122694542127 -51.14730745602938 62.552615753493434 0 0 0
78.16258595635756 -30.215179946903753 39.353333363407685 0 0 0
-69.87987930570915 58.24689065911783 0.3096518034201381 0 0 0
-52.577838159450266 -70.81755843339523 5.540826778513171 0 0 0
1.2544714578628948 -87.20355186475649 -34.195593041530806 0 0 0
36.80726904482283 -61.137371998824754 -60.71668683745057 0 0 0
49.988778218176535 4.415754809708602 -72.78712672536791 0 0 0
-65.46386968401804 -42.185078952389574 -45.828827453027 0 0 0
-9.652932835458278 -34.05215367898539 -85.51008429302117 0 0 0
-16.998990082695155 -74.43100185107748 49.26100030758946 0 0 0
25.708310500377316 -3.794842867103334 89.44917781529972 0 0 0
1.1298724520824628 -88.19708463060581 -2.1165967881681205 0 0 0
28.85853194222197 88.05064104966284 -1.730269694516366 0 0 0
22.264103657016204 -24.65057023219918 -84.94058530696418 0 0 0
-47.83859199970763 -74.26082376658927 30.4655782163616 0 0 0
-82.19064869779055 -32.4549660185767 15.205464596092966 0 0 0
-74.00957352330396 55.24649152384364 -13.103848878285131 0 0 0
-35.080727740778855 30.95323554374834 78.78821506368695 0 0 0
-32.09251541351978 14.334274896762887 -82.4284029254159 0 0 0
91.64733980461067 -3.350261208957211 2.3859739717092623 0 0 0
7.866662652869467 5.824897240001363 90.04338383674622 0 0 0
-3.191735677013721 13.07604555324992 90.04338383674622 0 0 0
-59.207487273867336 66.00083826743878 24.223521937196878 0 0 0
-51.82787345489986 -71.36244100262111 24.47432121429212 0 0 0
22.549596686542856 88.19708463060583 20.562750702916755 0 0 0
32.10909141546662 -85.68897207237167 -8.2333956862229 0 0 0
91.3186995025814 4.361714659613561 -9.19112632394355 0 0 0
-23.658878662289794 -27.936526565731874 -81.70391539049919 0 0 0
-89.97054282789864 8.51091283259053 4.078043452932132 0 0 0
-31.23869528291107 35.98506723532609 -74.99020368777377 0 0 0
-53.73983362492419 69.97332001921207 14.08701797871866 0 0 0
44.40973202845966 54.5871954970997 -57.71222529477008 0 0 0
48.08067927531559 41.28022567970256 64.64563233491442 0 0 0
-86.21361244483525 -8.599157961501664 -28.264269372281966 0 0 0
74.69635783263764 -48.14014807355381 -24.198029012510755 0 0 0
-49.99366856758098 -19.71654138808738 -71.52260309735664 0 0 0
25.73445248793753 -18.36488088617677 -87.7771243060899 0 0 0
-41.262735198094795 79.0384589138522 -24.316886753742438 0 0 0
-38.98092241426379 -80.69629311115835 -19.59179837958699 0 0 0
-82.09665861331248 -32.744236935406924 11.725256592663946 0 0 0
15.234139339811534 -34.19045855316414 83.644412059355 0 0 0
-73.42400941305972 -36.58010105477663 -39.538097840376714 0 0 0
-74.75877171501473 51.57764229962171 20.847077650720927 0 0 0
-8.206620318689051 -54.072639813846095 70.33146861931236 0 0 0
-43.501293770817455 34.14421038298625 75.30442260887529 0 0 0
47.85603567019639 11.490289071656484 75.5797802075116 0 0 0
26.56940281099347 -9.446191674632963 -87.2610966307863 0 0 0
61.98037660616612 5.593638910924884 67.47446480748576 0 0 0
-23.51433210057162 -56.54076549855213 -68.99637157649244 0 0 0
-15.00369337549833 33.35682220370797 81.20979410496732 0 0 0
60.717855954508856 64.90349054780783 -13.815288287555791 0 0 0
-13.63277994771246 -84.76970597351115 31.676047563024422 0 0 0
19.362324433441692 -32.82539681343772 -80.68973376759963 0 0 0
-44.07281721686282 61.9112979352781 -50.452726346083544 0 0 0
-80.16089334972301 38.701907001798006 1.0666594417338615 0 0 0
44.452559400695094 -69.20726050869173 39.03552178008797 0 0 0
20.999816339486284 -7.9707795509439725 -90.04338383674622 0 0 0
81.7940623521888 33.67553602774353 -27.44087737285844 0 0 0
29.73558781011875 87.41342307636405 -6.515561733277341 0 0 0
63.420691777270534 62.93976463996327 -0.8282735596424011 0 0 0
-21.219183012187656 88.19708463060583 -7.156220999290152 0 0 0
27.717687581701185 83.88653634708578 -24.650985829826663 0 0 0
-45.18481283332889 76.18890629388255 20.89390799892659 0 0 0
80.73708239410757 -10.538866033438296 37.125480273929014 0 0 0
63.64001554226866 17.808501612122626 64.78911286069318 0 0 0
14.302679594907705 -12.688284926230937 -90.04338383674622 0 0 0
-49.69434601024497 49.74327581602189 55.401417255345805 0 0 0
-31.955705341388708 -55.233226055884145 -66.78778073316853 0 0 0
57.44869030293 -55.00877816756848 43.72249790702279 0 0 0
45.13521834774211 -76.22493863977465 -18.782109218865262 0 0 0
72.97445019147473 17.17697890940438 49.68568179976687 0 0 0
-70.7924361201493 17.37331715950874 -53.21625438811719 0 0 0
-92.55267929754186 -0.5639130075066568 -2.031947425784539 0 0 0
-71.47169291214878 57.09037129560826 11.289483976422424 0 0 0
59.211229176749185 3.6774326420830725 71.95503903286719 0 0 0
-33.09938910180256 -84.96947928702104 15.448759703971511 0 0 0
14.060474591368049 -31.59654061410418 85.17354017434639 0 0 0
14.691266399209063 29.472323887914847 85.62981100297564 0 0 0
-10.739469110494149 88.19708463060583 15.192088465664941 0 0 0
-58.549156539723924 66.47914050898532 -16.895135988815003 0 0 0
29.147662501356614 73.1989958167501 40.54532184133821 0 0 0
51.38113936177144 -66.74107399165638 -37.02751340162607 0 0 0
4.887137747401432 -82.82456814472711 37.863351803783736 0 0 0
-21.5694449248587 -19.633082320421078 88.02245835726406 0 0 0
44.46510895518982 -57.902399118423205 -54.48679067616038 0 0 0
22.303800487938762 -86.17775725695981 -23.638790193564557 0 0 0
58.995274301951305 -66.15501806595384 2.4309794240114613 0 0 0
36.77543955125445 76.26046496306178 -33.558638527406416 0 0 0
-76.96292181431996 41.496056686776335 -28.032965694435383 0 0 0
-66.51688213443208 60.69025088104264 0.47342971389157995 0 0 0
68.71166262458404 27.374786632337617 56.58301629976076 0 0 0
-82.89456222212216 -30.28853667480562 -12.6409840955771 0 0 0
-20.91681799915409 88.19708463060583 1.7684731754315273 0 0 0
-74.88532248100528 -0.0020291777234913155 -46.593825787510795 0 0 0
23.488412030931144 38.32925800776954 78.01376867796266 0 0 0
20.206615585716307 80.51184260785148 -35.712132092969725 0 0 0
-74.10779818685666 -14.803276341488125 53.1275326570206 0 0 0
86.51213248977434 1.3263782477132287 27.781253840170887 0 0 0
57.04202843711583 -67.57413386780382 5.705659691927739 0 0 0
-0.49951199830061555 31.69502486436374 -85.14742218393307 0 0 0
89.399612342291 10.268060144874505 -21.72746038830932 0 0 0
-22.27509297268048 57.036777253574535 -68.85270755008823 0 0 0
-72.28531179414021 56.499242230580705 5.671439224224919 0 0 0
-9.3968099089107 88.19708463060583 -4.760366757099652 0 0 0
-74.99389454735292 -18.246536044348783 51.355340668241325 0 0 0
1.6834687555275778 -32.81198100548764 84.71700749058891 0 0 0
-31.367196567251685 86.22798951770541 -0.8144361573840868 0 0 0
48.14802453657805 -74.03600434188073 18.460704930644788 0 0 0
-83.53235438293682 28.325618717885106 6.284380095634205 0 0 0
-57.46153243080259 67.26934739293579 7.869979159598634 0 0 0
57.090140196757865 -16.290205088524978 -68.3982436839379 0 0 0
-11.184390560768186 28.7422249414889 84.65160781031246 0 0 0
60.3126143345478 -65.19791630515424 -20.942330579494783 0 0 0
-72.11395419562602 -35.134568487661326 -43.35713688103497 0 0 0
39.49917635039237 -3.3992003524324303 -79.27005716712347 0 0 0
-21.581403704845375 74.75231530924052 45.817738846778454 0 0 0
85.52738204313172 -22.185556684996094 -12.272363510585242 0 0 0
44.92911908594971 70.13474730266056 37.36998628485351 0 0 0
71.81030675346544 -45.73357369833992 31.38857182701817 0 0 0
-71.95115459428484 -31.003202525826744 44.08974615206404 0 0 0
-2.39958445239429 27.410666328685547 -88.02858614194851 0 0 0
-92.14665700388458 -1.8135203984540802 -4.9064068324188455 0 0 0
10.70805959053748 60.9057269278369 68.68252318626665 0 0 0
-33.53647483558863 84.65191594370745 -12.146471483300559 0 0 0
91.50351020108991 -3.792927830377309 -17.793530214442093 0 0 0
-17.808535927304053 -5.368539639129523 90.04338383674622 0 0 0
0.4775846300404112 26.079668361615642 88.4438577923239 0 0 0
41.6963422606881 13.182867733304573 78.04476211641193 0 0 0
2.0527518860288687 79.03356010517705 45.114307292002266 0 0 0
-78.7009524477858 43.19513852252174 -17.543695892253282 0 0 0
-19.798523761645647 84.13825628726268 29.066497655227753 0 0 0
65.43905872068528 61.47333480945911 6.928205218731536 0 0 0
-14.064004499304259 -52.911780767112006 -75.26711446245695 0 0 0
-42.23014974103572 -76.68349237442956 29.382796781060243 0 0 0
73.6244535592881 -54.531597208340216 18.110524723455327 0 0 0
-83.72666193572209 27.727605380837247 22.71646889675004 0 0 0
26.06359328159592 -61.11005370271735 -62.78460324367978 0 0 0
27.394116909248716 88.19708463060583 11.959324782291528 0 0 0
-65.82707438989482 47.741466955723446 -38.70922460883585 0 0 0
80.23679895731723 -14.055996182378358 -40.869536180713155 0 0 0
-10.602477843000067 83.1405419765291 -34.519447421035984 0 0 0
-12.354905494465957 -88.19708463060581 -7.534649124225211 0 0 0
-80.72414821970722 24.9934484261929 38.321364797149286 0 0 0
79.02971498806225 -42.1833195618874 -17.361391352632534 0 0 0
1.6535018719160597 -88.19708463060581 30.587404622292055 0 0 0
35.89499126248529 -75.24414574928927 34.024494266500994 0 0 0
19.070777520654058 -27.001620571546468 -84.16854366049661 0 0 0
81.7958685583704 -33.669973219705454 -10.598185128989758 0 0 0
47.26112301181881 63.20616913675294 -45.78257746813001 0 0 0
48.745831574918576 -73.60167267858691 11.185066352283592 0 0 0
-1.0818885111193186 -77.43628499732355 49.139581764618924 0 0 0
77.08588513368136 48.16581290845701 -19.835963002765016 0 0 0
-33.10558265058245 60.3436160288032 61.89020390255175 0 0 0
-37.455320759940015 72.43299634079071 40.41872715779367 0 0 0
72.96647158013313 -16.828304610376943 49.69859146284644 0 0 0
20.468364133873916 -2.5844839233160015 -90.04338383674622 0 0 0
89.26622730911687 -1.1941730403219406 -22.810686938455206 0 0 0
49.2593716225537 -73.2285659810083 -15.652799446627503 0 0 0
33.3966220548143 -76.71199359809253 -34.78800371184063 0 0 0
30.417803545224785 33.618199279206415 -78.11232797701626 0 0 0
20.883853462080133 80.68114054659755 33.16338878721709 0 0 0
-85.38852878911572 22.61290404714359 16.67814220017038 0 0 0
-45.012406018375906 37.3711744053342 73.11906425661803 0 0 0
30.404630522606546 35.48193658599337 75.59000898232941 0 0 0
45.11434626059759 -76.24010181177096 -1.0706568194688373 0 0 0
-31.334431366176606 -76.50813697243599 36.45026580691389 0 0 0
-79.81728297114907 -39.75942935545849 -5.82775011248135 0 0 0
62.93619478516212 -26.337661128540507 62.64607726122633 0 0 0
-91.566742214328 -3.5983182867439756 11.584657626555945 0 0 0
-52.32064689435999 -9.353832093232619 -74.12358767990432 0 0 0
-71.50179164086515 -34.81484167207233 41.05288637168313 0 0 0
4.791987281599711 -74.00541075940461 -56.27420478049661 0 0 0
35.33862784093337 -27.84449956998739 75.8974710125157 0 0 0
-33.71111376133754 -84.31626991820177 -21.15586777216764 0 0 0
-43.214599542329 23.416855423933733 76.97379936643551 0 0 0
-48.21318488791501 55.426604336271986 51.935116618359686 0 0 0
42.892222180188114 -70.82465548078429 37.326775268599874 0 0 0
76.45765336038778 -50.09930609378555 3.112278700222209 0 0 0
-67.37646221300655 60.065728153357284 -17.57635765228368 0 0 0
58.7800044563901 45.94137053193112 -47.123963876773416 0 0 0
35.35114889484762 -83.33347912526695 -0.5538101920564351 0 0 0
-80.54619670893976 -37.516069070633606 17.58190423629652 0 0 0
-79.2794536421191 -41.414693832686645 -22.740814890444287 0 0 0
43.16675419882207 3.7663524882331587 80.73030488415334 0 0 0
-6.905088133595601 -88.19708463060581 -8.04261118569347 0 0 0
-46.927974748473744 -37.01599348972279 71.12700570177488 0 0 0
-8.514655223827415 44.775337590345956 -78.9897640109264 0 0 0
-63.54529317027923 55.00321642494722 -33.86452612880714 0 0 0
30.249715180272446 -80.35649806785919 28.98003051500796 0 0 0
-37.848671840520126 -51.64195962472442 66.09905935907209 0 0 0
-51.58692058959372 25.53590023425958 -68.6119715327798 0 0 0
22.019633861077708 -88.19708463060581 0.11280609806600594 0 0 0
79.19606192900987 41.67135732517452 -21.590867880411338 0 0 0
81.52588753042826 -23.150324254934173 35.849166876851726 0 0 0
-10.433312499308276 -85.53294502559585 32.20165986755863 0 0 0
-55.69483934074485 29.412604713918327 -65.14971687160498 0 0 0
59.31290976518747 65.92424078453784 24.93518400455204 0 0 0
-61.869322369062914 20.11986659003373 -65.43825921085347 0 0 0
73.0791929051154 15.097722093248532 -55.18474237052957 0 0 0
22.03297792299888 21.434189894760046 84.87897749014687 0 0 0
68.34621965473016 -26.686243025903835 57.17431538849105 0 0 0
-29.223371665225578 80.63838727049931 29.89876899186809 0 0 0
33.81754011960578 -70.97910541502975 -45.432463875266336 0 0 0
29.826867177704976 65.97308754359877 51.325250379526345 0 0 0
44.98262796510541 -2.36214599613497 80.33247569544805 0 0 0
-9.975824447898479 -88.19708463060581 1.9457164453174567 0 0 0
1.4123708899020606 -66.164414096349 65.06116635125649 0 0 0
15.490763494748258 -79.78460650771554 -40.009973830253315 0 0 0
-29.995038717948944 62.837221670633284 61.01856036999082 0 0 0
46.785234903814064 -55.27971213686985 -53.94402985883466 0 0 0
-25.013682976459425 -88.19708463060581 -6.238566554774099 0 0 0
-83.89053883058665 -27.2232364870032 -10.745044958475852 0 0 0
-26.095985117799653 27.394542739760404 -80.68224916439253 0 0 0
-59.97684298421821 39.71079790080246 51.48290752030273 0 0 0
-17.472892859924755 -15.599491576973806 -89.27859810221811 0 0 0
18.965727062309547 -82.01964736714469 32.06270169243411 0 0 0
-4.161538926049272 34.216660775136155 -84.3646267353999 0 0 0
36.64413032510639 40.31216485734155 -72.98859179277409 0 0 0
4.400041612647556 88.19708463060583 -10.590217668272222 0 0 0
-50.06313656787892 -46.759825542142764 57.75609340845 0 0 0
40.06071199546548 79.91178008139627 20.419443555211153 0 0 0
58.38273050906337 -62.3465204901654 33.58515645512787 0 0 0
-91.9243447559437 2.4977287807733695 2.3846194645287575 0 0 0
7.127937998288926 81.87608754049377 -41.20024990718415 0 0 0
80.50448495737905 -37.644439449251614 4.9394743061780275 0 0 0
-58.05539079256397 26.22934510120772 -65.12582757904912 0 0 0
-71.0854344024271 -57.37100238696686 -17.830256529872543 0 0 0
55.35888549328951 6.475403428202975 73.65011847754464 0 0 0
-84.7987597647782 -6.682429539356395 -30.553548875291405 0 0 0
20.82662277794244 -69.48950603569203 50.414161061601426 0 0 0
-91.28756086438901 -4.4575516550423595 18.431149767675258 0 0 0
-75.05786573715824 19.716425042843007 -46.314644961647296 0 0 0
-5.247698285517636 41.22763773241797 -80.4511162870651 0 0 0
-28.55454169684111 -25.839186854573082 83.04056751976496 0 0 0
-20.355652738074234 32.9313253627079 -81.54106194756993 0 0 0
-20.9587745545432 78.45134419469493 39.16657341173696 0 0 0
-54.22099671243626 63.046076502291605 -39.496605393565204 0 0 0
51.165320273414764 11.367919902271126 73.96959094638216 0 0 0
-3.958555553672099 37.565054311026 80.84569085218571 0 0 0
-77.26015171471118 -20.329208079938958 -42.751271743190564 0 0 0
-45.1519559648159 12.405187218970944 75.77644725658618 0 0 0
11.430730393394281 61.88898088739915 -65.12138901242884 0 0 0
65.36454606055726 -7.539895851021932 61.9987641385399 0 0 0
4.6371122649775804 76.02586386124396 -53.08760922084886 0 0 0
72.01484786741078 29.36222562382732 -45.567032010879004 0 0 0
5.579326349138582 -64.68490675235583 65.43132975603629 0 0 0
60.490634181648915 65.06857752212468 -23.603696761955945 0 0 0
-64.71862148502143 -61.996763343469034 -2.815363956523999 0 0 0
-85.74603163097129 21.512626443020846 29.447469628263256 0 0 0
-11.399168339776988 79.4600966338784 -39.784725868301294 0 0 0
11.185765649961475 -40.562846340606754 81.97594056559876 0 0 0
84.51731856695562 -25.294209884370563 -2.09427497847164 0 0 0
-34.97845052437682 12.958411621534037 82.06401936375525 0 0 0
-46.960045652468295 -74.8991236577134 12.194660275945363 0 0 0
-51.54601540873438 -3.2906423898773003 -76.71348566643515 0 0 0
74.75917520555703 54.70187488845401 1.961000155041944 0 0 0
16.64281444130728 88.19708463060583 13.30316609588515 0 0 0
-21.700069156505617 74.59783563498597 -42.116525792690666 0 0 0
27.166455652244576 -6.7495363725173405 -86.89209768414648 0 0 0
76.62351328965215 18.398606091088073 -48.09610453025546 0 0 0
52.894141438550996 27.87450056568168 67.10881489533918 0 0 0
-45.98680544192831 29.40965507393967 75.2604819075029 0 0 0
-33.42725007742459 64.7026688543256 57.6121686380453 0 0 0
-14.560742615611499 -77.09793398073832 -41.83893346814111 0 0 0
52.525891490451244 54.93853935992709 51.77032383878864 0 0 0
45.109499082724625 76.24362322200359 2.6533691355809808 0 0 0
-75.23221491177421 -8.260700099752773 50.878700136331446 0 0 0
18.165318716475717 88.19708463060583 -14.60222151229294 0 0 0
-16.539674742690266 36.12559808649947 -82.28866383384822 0 0 0
70.54935540519972 -57.760486599935234 16.94848697038775 0 0 0
6.47509768783997 44.25772587806052 -76.4312209618268 0 0 0
-33.81390351801496 -52.315171787554206 66.47392726465878 0 0 0
-59.001698304608716 45.9387530800828 46.83625225373566 0 0 0
-20.602422456422822 85.27015644085206 26.416658891812702 0 0 0
-56.77662357611794 67.76696354461494 18.799314389773354 0 0 0
-28.650771288708423 -88.19708463060581 12.642757756846239 0 0 0
80.00379479483176 37.812351006871616 -27.07282144894444 0 0 0
2.2335765609584506 -77.93560930542246 46.7134677119073 0 0 0
53.697117412579445 1.4701910108747995 -70.49524707590432 0 0 0
-48.41382977638716 66.95551526402247 40.707825714032 0 0 0
-37.59269146025944 -0.7799231340413613 80.44832962081392 0 0 0
12.697799540328393 83.4394732836237 -34.784150185417204 0 0 0
-48.669489906115125 -71.79155935641975 -32.9502285921834 0 0 0
71.29588966269458 -20.188295752654568 52.401649523658854 0 0 0
-57.96891259554968 -0.49172802742796407 -73.96514929075926 0 0 0
72.0466284028246 52.15398380819154 -23.849185530204366 0 0 0
-77.7865339851845 25.61685065295661 41.57386050457682 0 0 0
54.52434903546279 69.40333374853412 20.64871733797859 0 0 0
54.422886106264556 69.47705151936908 11.754293091020504 0 0 0
-6.489594705096515 3.8638595959625808 -90.04338383674622 0 0 0
-31.03936841039878 86.46617163427892 13.567549062426687 0 0 0
-12.585833793134995 7.168461370684071 90.04338383674622 0 0 0
73.5956336835447 -55.54723676623656 7.918186661194163 0 0 0
61.783079288350024 -38.704394902611746 -50.07565980396056 0 0 0
-52.24725653035233 60.98449952724987 -45.113712770658665 0 0 0
-45.755927559662005 8.354139900178456 -77.76910703806058 0 0 0
88.8597500929354 11.929579056243504 4.9632033872121895 0 0 0
82.1505657835314 -17.146250776099812 34.83841632948938 0 0 0
-16.735004048356853 -81.60691978161074 -33.8131859421602 0 0 0
-84.49528145281143 -25.36203348437502 3.57437876785934 0 0 0
-5.609255666158045 73.2054891704456 57.913791965887334 0 0 0
-0.933662635525824 -88.19708463060581 19.060816473519893 0 0 0
9.079928304748798 88.19708463060583 -19.11574895716421 0 0 0
32.601106797209745 -62.20512060391986 55.73643598547787 0 0 0
46.01621548953823 -75.58485506919168 5.293006949210824 0 0 0
-88.4546329381339 -1.7960222003063013 24.4338750097715 0 0 0
-11.90913379463057 88.19708463060583 -12.563007980093227 0 0 0
-9.10682362327879 -72.511566402845 -51.62358841037309 0 0 0
40.67943040971483 59.38562786002183 -58.0316733717684 0 0 0
-66.66182357627252 38.858008062129514 -47.80170355875529 0 0 0
45.6749155945204 -71.51711735070269 -37.08084442212146 0 0 0
-82.26731629867693 3.4571535609301525 36.80850317588322 0 0 0
-45.540514465310864 -75.93047276533659 4.458628422274286 0 0 0
-85.93218004672784 11.674652660320298 -28.719636513717564 0 0 0
13.238447034019625 69.06367699351442 54.86353325420376 0 0 0
-32.54237086816822 -48.52872010691877 -69.78161798631272 0 0 0
22.712242606090715 33.40197728680478 -79.71105098209105 0 0 0
68.5568500812904 -59.20812838944499 -11.799960911795326 0 0 0
-78.82369394856897 -24.392249139949772 41.3808656949046 0 0 0
-56.24989849646255 60.639487637255996 -39.042888225093606 0 0 0
-66.15853796853692 -23.446338088517727 58.85938204631198 0 0 0
39.44477506695949 80.35928514990913 10.190352477124968 0 0 0
-76.44421363818843 50.14066758363046 -10.581079108842431 0 0 0
-89.04189981707373 -11.368982797960433 7.698289964250822 0 0 0
-35.6757245939804 -80.0182221381459 27.090620439861276 0 0 0
65.66926669902853 -61.306078374053065 14.73289606895841 0 0 0
-12.557780773385055 -66.10372170319823 -59.75876988650508 0 0 0
-46.53972091271794 -75.20450798890717 19.969543027558103 0 0 0
-59.47379903277836 -15.1685307854911 66.9250615150077 0 0 0
79.31568263623825 41.30319481085043 12.532156492912996 0 0 0
72.31562143141105 0.9147118561795189 50.751689022756395 0 0 0
-84.64060206099546 -24.914784992320147 13.669871853871342 0 0 0
-14.919339587769446 -21.140736015751358 88.40633872522787 0 0 0
-16.77547950628903 18.29354881384812 89.72538206600737 0 0 0
-37.652810316296275 -81.66122534415103 13.659475582109247 0 0 0
-89.01204404594259 -11.460867843665776 0.9045272947729757 0 0 0
19.483388827429756 -62.309480537269515 62.13470276485613 0 0 0
-64.77640931023159 -61.95477709967613 -15.707009046932061 0 0 0
77.71285620745498 -35.59910386197563 33.751829689052286 0 0 0
-91.7397428403817 -3.065875815252435 5.827944607051858 0 0 0
-79.19769363645362 41.666333923562895 14.976105798361754 0 0 0
-83.68496045967751 27.855950529113702 27.971719691626912 0 0 0
16.508884274551484 81.60431146234662 33.930259641602305 0 0 0
-25.875473112769114 44.476431218705685 -74.58714702826187 0 0 0
-62.63905996816143 -63.507651653710305 -22.282387395457416 0 0 0
62.04330030621651 50.41337313158489 -38.59912860524216 0 0 0
7.471902222880313 -88.19708463060581 -26.49871087364769 0 0 0
62.92785743196138 11.406341524210674 65.9414087765921 0 0 0
10.641460094256892 53.323004702953284 74.37175542635916 0 0 0
71.3735097200032 56.339144877023884 -20.749985376051285 0 0 0
-18.3510949942095 -88.19708463060581 -15.581117475893173 0 0 0
-50.957564958756166 -3.9539454536810226 72.18838359562515 0 0 0
67.87078798871433 37.93957077718845 46.92524587432926 0 0 0
38.30090147906559 72.35041417819527 37.27453452966469 0 0 0
9.03630257518024 -66.78178985386992 -62.702763326095315 0 0 0
1.629412645297947 -88.19708463060581 5.06365210513853 0 0 0
-83.69914675138996 17.038827226551994 33.94484345363014 0 0 0
-31.354711933461463 -14.49928117389495 84.30361296512537 0 0 0
-5.60380117319739 63.26252564581694 -67.5673451999393 0 0 0
75.44647674846331 -6.342206878799956 45.68585919803793 0 0 0
46.08644247069104 -62.03354958762397 49.25778755495223 0 0 0
-26.45445504036052 -33.74685707452349 -78.19540132665792 0 0 0
75.55851859374093 52.86655787108091 4.514839033364511 0 0 0
39.3663779163838 -62.645082767384736 51.67676754280917 0 0 0
15.86085242360447 88.19708463060583 -19.756939272809284 0 0 0
71.01374916820453 -53.730875506745434 23.276037620665804 0 0 0
-31.01321392023128 -86.48517349843652 6.908683718673384 0 0 0
-43.19851502170478 17.885489512454242 76.98374014681119 0 0 0
65.20067541024831 -61.64653072133672 2.559394298898056 0 0 0
78.8619943392925 21.801220103511596 40.159436183778865 0 0 0
87.87668199266483 14.955148664799154 16.756705244668954 0 0 0
-2.881398124758178 88.19708463060583 31.200752979029904 0 0 0
-24.912607795486533 1.6306443424292874 -90.04338383674622 0 0 0
-9.00418869465614 -88.19708463060581 -26.345115619944984 0 0 0
0.8433180280002475 76.08871635048428 -51.0939916951632 0 0 0
-67.32283380467061 58.033857980630444 24.440620540183456 0 0 0
-24.50659355186631 48.622012022334054 -73.76561675390204 0 0 0
43.71707039135043 -33.139956262653065 -75.85349864299677 0 0 0
66.86118260908376 33.4593908603369 -48.41663149373825 0 0 0
66.23307801746508 56.77402299956127 27.433891369950366 0 0 0
20.51103005478996 83.4778801154492 29.046060291248402 0 0 0
69.20586705767973 58.73658927655051 -1.7735822855731982 0 0 0
15.05548808633989 -32.216965042688834 -81.86989334978121 0 0 0
72.2375423620974 42.1943393003746 34.857909370124965 0 0 0
-61.77524196646715 64.13525444717425 10.02513767315854 0 0 0
74.60034555528621 -54.817272314835186 -11.030954201089909 0 0 0
-32.366036111159445 79.97020485385777 -28.51631406090202 0 0 0
75.58767725367589 31.429664051441126 -38.923888052892764 0 0 0
-55.667167383852224 18.813089544123848 69.27768924182023 0 0 0
-83.85456918882247 27.333945093512117 12.881121054818117 0 0 0
-65.88365340696555 -46.111863122059624 -40.53339188947823 0 0 0
-14.190876424325456 -88.19708463060581 -4.609522017040483 0 0 0
64.82930976913343 -55.06901575854522 -30.524417217502677 0 0 0
-27.41776107297526 4.718143432571551 86.73678239355986 0 0 0
0.9208642897393275 -72.37337419757604 55.92922481681091 0 0 0
-3.2235875699843177 -88.19708463060581 23.36701779902319 0 0 0
58.85173433806872 5.576482790972818 -67.30951863710877 0 0 0
14.542263838252321 -84.0807474790889 -32.42443268293484 0 0 0
-53.300219646930444 70.29271785209278 8.78871142712339 0 0 0
77.2194070244114 44.18834777974783 24.45298618997441 0 0 0
-9.693925770243705 -67.07530706558035 -59.695581323275256 0 0 0
77.70150722477733 46.271117262008595 5.302697944469504 0 0 0
-12.161412086031607 -5.509546863985803 -90.04338383674622 0 0 0
-43.72669766689725 -18.664453309734377 -75.03828214078567 0 0 0
76.09165742610978 -51.22572629142877 0.48525041288367987 0 0 0
-21.36893994188599 33.076260658962894 80.15905032426582 0 0 0
-23.22741679515116 -82.62272948944555 29.830028950227764 0 0 0
-90.09352666254756 8.132408238822835 7.146453022715541 0 0 0
59.871067094944685 65.5187170061665 8.173391957561176 0 0 0
-33.21469260842192 8.123473406434872 83.15408169684994 0 0 0
-68.08581252110359 -56.70350341800308 24.70711068741237 0 0 0
1.584786371795003 41.24641860018424 -79.13518895220719 0 0 0
7.25453551408598 88.19708463060583 -2.8178472752298855 0 0 0
55.613539818679065 33.31209361069724 63.77379462028159 0 0 0
-27.866550034569123 -51.830611242438835 67.89458801217175 0 0 0
5.71963285242288 -71.18850398575017 55.353168095772986 0 0 0
32.262194244346546 -63.63379611717481 -60.11735761324711 0 0 0
-88.48009353102594 13.098040846117035 -8.825801146433008 0 0 0
59.138554995318515 -10.195957200645427 70.40871351127566 0 0 0
-16.611703992122962 52.44532010590033 -76.02786034692744 0 0 0
72.16729425446869 29.40784238000793 50.00300061813269 0 0 0
2.0268382776810068 19.60703478544717 90.04338383674622 0 0 0
-2.131338325258394 0.08384714697199114 -90.04338383674622 0 0 0
9.570509079345143 -76.22222750944094 45.68162458173539 0 0 0
-19.813803605454968 -77.48626554683715 -38.614821563400724 0 0 0
66.14566223421677 -18.762846593265742 -62.801623314300194 0 0 0
-15.56415790329509 25.177395573382213 85.910500721632 0 0 0
-52.90679057776756 70.57855930258835 -11.46683164256785 0 0 0
-4.746713877239071 65.58548307687586 -64.46179142304021 0 0 0
6.051316822430733 -36.64729039684825 83.2968540500186 0 0 0
-83.16576586573512 -29.453854205604255 -27.97899931630762 0 0 0
81.88970698223312 -33.38116043409689 23.418451294532826 0 0 0
-66.33560765306034 60.82195380741076 -8.893252557641325 0 0 0
-61.52700646926874 29.055234675580003 59.58775805170731 0 0 0
-72.41304376913035 -50.282620513712516 25.149313519861927 0 0 0
-47.339254376080206 -54.40177940139786 54.053772533480235 0 0 0
-4.704469679550556 -32.32416037339369 83.78375377044419 0 0 0
26.020066837677447 20.658943901571934 -86.56947912211356 0 0 0
-1.4102464918737283 88.19708463060583 21.547962468887864 0 0 0
-10.736878879323783 22.64300327200997 88.32210705978196 0 0 0
43.38931190721258 -36.05604426510421 68.88911089677558 0 0 0
-66.84317010499039 55.04885296780233 -28.47480054372683 0 0 0
-35.554021097560984 -6.2754080362639755 81.70829718885228 0 0 0
45.87123313295714 75.69019245763293 -16.087310024059317 0 0 0
-70.51472295279996 57.78564887180094 -12.470378089292648 0 0 0
