ply
format ascii 1.0
comment File exported by Rhinoceros Version 8
element vertex 976
property float x
property float y
property float z
property uchar red
property uchar green
property uchar blue
end_header
-10.03281963990667 3.5572331508422472 40 0 0 0
-5.45536098790139 -17.9260687427251 0 0 0 0
50 3.887017929873906 36.00780893862612 0 0 0
15.372764275117197 -20.704312459893668 0 0 0 0
-30.000000000000004 -1.9271700093183601 22.64151605900448 0 0 0
17.843533082792327 20 51.755537852531084 0 0 0
-12.031545500285713 -8.863135864428777 40 0 0 0
50 -9.05489177399077 24.114431051590685 0 0 0
0 4.713771839027174 58.11663683416165 0 0 0
-16.484840436133013 10 13.547317634125854 0 0 0
2.8565442202876064 14.62865395221331 60 0 0 0
50 -8.559903394691608 29.578573056300435 0 0 0
-30 -27.834480073225905 36.623577343590355 0 0 0
-13.104178092025302 -36.37636171950789 40 0 0 0
26.958050102441593 -30 45.59114546775406 0 0 0
0 12.859994057966393 57.70867559952134 0 0 0
-30 -2.2776449715149027 38.102717454593034 0 0 0
-17.730745918923404 6.563462725171565 0 0 0 0
28.628631647968955 20 33.58367991334931 0 0 0
-26.774112012597783 5.932157801432609 0 0 0 0
47.24825594911736 17.32516454408186 60 0 0 0
-30 -38.33460887816486 33.2192814691082 0 0 0
-30.000000000000004 -0.6138447349024279 35.09951255987376 0 0 0
50.00000000000001 -4.281532351990016 54.52467607079292 0 0 0
-0.8890674965870904 -37.795257879325774 40 0 0 0
16.932991220118943 -40 6.181142724203478 0 0 0
-6.820031030485421 8.236159048153162 0 0 0 0
23.918454895689365 10.045579634628066 20 0 0 0
50.00000000000001 16.06393805987384 34.38605068921393 0 0 0
0 2.1989058434026987 56.51838602336049 0 0 0
37.96945011148669 20 24.887507299374562 0 0 0
7.543208937879284 8.59054475025765 0 0 0 0
2.6470980619299684 -30.000000000000004 52.465990144976416 0 0 0
1.3587536529445807 16.668009737817577 20 0 0 0
-30 -34.138439159904834 26.14614016662638 0 0 0
-30 9.432348878789849 9.26220901741749 0 0 0
-20.25494018115799 -40 8.762083467450964 0 0 0
-19.88020780490722 10.000000000000002 8.98168914438304 0 0 0
-30 -6.355097976678578 13.69971566540176 0 0 0
-29.673115741309303 10.000000000000002 11.0608271933444 0 0 0
12.07245765816069 -11.90040059010517 60 0 0 0
-3.5887717798299956 -37.03990800634023 40 0 0 0
-16.85287408849824 -7.205667014795201 0 0 0 0
48.51984360652037 9.526728815178727 20 0 0 0
20 -4.5193573155064835 18.880242229849216 0 0 0
-11.656766767453759 -38.76074946893414 40 0 0 0
-29.0489695915249 5.4188420183113095 40 0 0 0
-4.626810068556483 10 5.24441993108225 0 0 0
50.00000000000001 10.276564443612735 38.50593858328925 0 0 0
7.006990116558499 -40 18.730995291253087 0 0 0
-11.887919307634196 -32.831546600363936 40 0 0 0
8.658773293094137 17.72327011345107 60 0 0 0
45.12615427147884 -20.697674379077586 60 0 0 0
50 -19.972827089937788 36.56753524046743 0 0 0
50 -13.911797350231465 26.575659926317478 0 0 0
44.69366864985492 20 47.45695176881596 0 0 0
40.99190192808951 -7.946154250738284 20 0 0 0
-27.592799434248725 -39.99999999999999 3.1027359902405816 0 0 0
27.23622463049191 9.666954260164381 60 0 0 0
35.89665800607608 -18.447453751437113 20 0 0 0
50 -9.790192553675823 50.81951897163854 0 0 0
9.203467960098502 10 1.8627962664993465 0 0 0
-27.448730653826487 10 30.997020672539723 0 0 0
-30.000000000000004 -8.281969785821632 28.530328268432214 0 0 0
-7.769371298034393 10.000000000000002 4.329169860262969 0 0 0
23.38999382843729 -21.99014203249949 20 0 0 0
15.24013926053426 -36.38106755278123 0 0 0 0
0 -8.448038701176655 45.20683911871484 0 0 0
-28.96012842606759 -14.422183527807789 40 0 0 0
-20.312672495056255 -26.95204050138222 40 0 0 0
46.64949604619736 7.865970068548793 20 0 0 0
-28.484611859770776 10 22.3335602983523 0 0 0
-30.000000000000004 -1.0077726705967298 16.229327496247986 0 0 0
15.795356810928954 -0.9517937949634137 60 0 0 0
-21.26881202276275 -30.14740627731541 0 0 0 0
34.74734813661657 -30.000000000000004 40.90844235425277 0 0 0
49.96768061535791 13.062567917193553 60 0 0 0
16.766882411561383 -3.849182642926081 0 0 0 0
0 15.624496878881242 55.61962881852856 0 0 0
-12.02115384955944 9.123964458296063 0 0 0 0
-23.88549588335934 -19.53609667231147 40 0 0 0
50 -7.341259097373705 39.82987058341031 0 0 0
-6.295809809256259 -24.92558760797865 40 0 0 0
5.160475035738421 -2.759799320604559 60 0 0 0
48.636082256509034 -30.000000000000004 36.36765203269555 0 0 0
20 -36.37369208334652 27.901431856631042 0 0 0
-7.694810800112228 -40 33.963834249397664 0 0 0
42.419274450475015 -25.38570346561526 60 0 0 0
33.64790926391627 6.034127993525065 20 0 0 0
14.03968400044352 2.002548492514782 60 0 0 0
48.33648838025354 -8.747700121601905 20 0 0 0
8.842169818860555 -40 27.932811075790234 0 0 0
-6.85787150489999 -40 17.64805612044784 0 0 0
8.388227642694597 -8.451975271316234 0 0 0 0
37.831598468046444 -18.259693974749972 60 0 0 0
0 0.627768314735847 52.11318416153695 0 0 0
-1.6475492909772171 10.000000000000002 31.697736583509368 0 0 0
2.3209988150377754 -30.000000000000004 45.4695074565101 0 0 0
-29.999999999999996 -12.528294624075436 17.63400408329163 0 0 0
33.41019055033577 20.000000000000004 25.536459351673937 0 0 0
18.83223983870458 -18.9615137404583 0 0 0 0
9.053371636687482 -40.00000000000001 11.321357810553796 0 0 0
16.367249403319903 -35.45430389486919 40 0 0 0
50 -24.99059936264092 28.368816696279133 0 0 0
8.494550855129283 -30.000000000000004 48.16488705024351 0 0 0
9.312116615153904 -30 55.20058128759292 0 0 0
-16.133379203329504 -35.92826736435679 40 0 0 0
10.435622981952335 20.000000000000004 35.267153724686786 0 0 0
0 6.608065914645813 52.509975895523084 0 0 0
-1.1182014882183644 -28.719310024156847 40 0 0 0
22.370139054195093 20 49.257807801132 0 0 0
25.709105457975117 20 49.243904756961356 0 0 0
22.455703314605966 -30 51.96580662949281 0 0 0
9.384415531244322 -16.155090530475178 0 0 0 0
46.608305115536 -28.364916838875466 60 0 0 0
35.10839237603749 10.170917073344308 60 0 0 0
20.000000000000004 -39.61885774956032 17.637081079947336 0 0 0
6.09681757450887 -15.876348803693592 0 0 0 0
20 -31.884517386501898 22.27791057074345 0 0 0
19.202666529083004 -26.73496486932736 60 0 0 0
20 -2.1186610600532427 0.0758232549185973 0 0 0
-27.84278441120069 2.4943430081449236 0 0 0 0
0 -10.587056130444205 47.33710197142191 0 0 0
-26.361199974250606 10 24.00730946287853 0 0 0
-30 -13.546658281025792 11.9314579348692 0 0 0
6.261130513744955 -3.9345855051347023 0 0 0 0
-0.5480080193597905 10 3.6013097519061112 0 0 0
20.000000000000004 -21.87325342179893 16.380293712197012 0 0 0
20.000000000000004 -5.835626710129738 3.9017606358517716 0 0 0
50 -25.131720553679266 20.852753669420608 0 0 0
-30.000000000000004 3.539889014111779 23.17330404332527 0 0 0
50 0.7814092984336451 50.908044646916935 0 0 0
-24.347956960251533 10 19.03706303752822 0 0 0
2.098109085158484 20 28.25870808598525 0 0 0
20 5.517359997852402 10.717945644034979 0 0 0
8.834803080574984 -40 33.128314964998665 0 0 0
-30 -31.214446533105544 26.13895018870894 0 0 0
-30 -7.124857109563828 16.41761722807662 0 0 0
-30.000000000000004 8.938664793473984 25.787102163670173 0 0 0
45.671044846843486 -29.999999999999996 20.64614929288912 0 0 0
2.2966604876782073 -40 4.089391140308879 0 0 0
14.05164919050953 -9.607256771813732 60 0 0 0
-30.000000000000004 -17.84264985371504 13.600317357853204 0 0 0
1.6028831254704379 20 54.5701318022656 0 0 0
17.803353149352294 -30.000000000000004 48.61284203297126 0 0 0
49.226199113403545 -17.608037976365555 20 0 0 0
44.83924950232694 0.6002061956563054 20 0 0 0
-28.73719094262328 10.000000000000002 19.199681384116264 0 0 0
0 -7.714755329170621 54.491600149540034 0 0 0
7.25885650481044 -20.11323918128071 0 0 0 0
40.75155057513693 9.818122023631872 20 0 0 0
-3.6154127975997556 -40 1.681951694973722 0 0 0
-28.949452070030134 -40 26.73211870097188 0 0 0
-8.026931163867435 10 26.453523499171027 0 0 0
11.853013072094418 -21.077353158536067 0 0 0 0
-30 -19.39985600737849 23.78029030923745 0 0 0
-1.5445711144919372 -5.867814871420998 0 0 0 0
-3.2831451917454437 9.999999999999998 11.873318334982413 0 0 0
50.00000000000001 14.752939764760884 42.65106997576127 0 0 0
-30 -6.623293616167878 30.000689341686986 0 0 0
-27.105238981128316 -38.7837025191559 40 0 0 0
-30 -2.3348272928664575 0.25580603641262556 0 0 0
30.094903558536856 20 48.09749688398908 0 0 0
-15.808619035318781 -9.396795225048805 0 0 0 0
0 -6.328241604533176 59.16440404912662 0 0 0
20 8.438248200546141 4.717349225989239 0 0 0
-30 -16.622440538658978 5.6935562033641895 0 0 0
-28.11061303974624 -40 38.472823183272425 0 0 0
37.26212186145695 -26.126835255942694 20 0 0 0
39.745626011744896 16.3286790979694 60 0 0 0
0 -14.82899937537919 42.610086604305586 0 0 0
40.09257454429408 -20.016201692640877 20 0 0 0
-1.2483791034893965 2.4075442098116273 40 0 0 0
-1.5329066019192794 10 37.95690268182983 0 0 0
28.198894079867237 -30 53.74811505607706 0 0 0
0 -9.529190682586838 58.673441167303096 0 0 0
-9.507186580219857 10 27.529386481051045 0 0 0
4.165381125251475 20 50.354987471529746 0 0 0
49.21165280938691 -30 47.33195872387475 0 0 0
10.636697621381234 -29.31634308272802 60 0 0 0
47.614861860691974 -12.873186530951966 20 0 0 0
-30 -6.856398790542215 26.48309103515143 0 0 0
20 -27.68988947276487 16.160387422964156 0 0 0
20 -29.218589262672975 8.402590308525875 0 0 0
18.959012934453323 -40 21.97588182146469 0 0 0
20.255700438402457 20 24.858817963329525 0 0 0
28.53674012168159 -12.121589538697892 20 0 0 0
26.271115139253027 -1.8959878533594265 60 0 0 0
-8.337943054893028 6.916959386745916 40 0 0 0
0.6749320731847241 -40 39.96901482342231 0 0 0
-30.000000000000004 7.612493181420721 27.53932760448164 0 0 0
-3.6034248832629254 10 8.600447628926695 0 0 0
50 15.00886511290858 27.392975691423274 0 0 0
-22.98851801687317 -40 1.736722589347848 0 0 0
43.629893261766945 9.363324381114602 20 0 0 0
11.93076376893127 1.8036999608407278 0 0 0 0
20 -0.17634985511021384 14.030248249895054 0 0 0
8.28344382265744 20 59.03814954638395 0 0 0
-0.4998966401907978 10 28.30244140154796 0 0 0
-30.000000000000004 6.458942278502012 31.84543965004638 0 0 0
31.469360474249978 -4.618653405745814 20 0 0 0
45.25672313536365 -26.449115032539293 20 0 0 0
6.9440094274207995 -40 0.6468252281876398 0 0 0
19.81529957140577 10 18.859935095002847 0 0 0
24.923206644562637 -24.309185605640145 60 0 0 0
-11.656670259151909 10 3.5015214064631244 0 0 0
30.08207135371961 -30 56.248822303604726 0 0 0
19.610566072915944 -16.77093083354222 60 0 0 0
22.21279401435181 16.834006298721775 60 0 0 0
-30 -13.516338096706342 20.532193659121262 0 0 0
38.27142384288433 20 40.09941323664944 0 0 0
7.747480877557527 -35.41439728132188 40 0 0 0
0 19.16184905411761 50.63298550929548 0 0 0
45.9460406778129 -11.783014643836307 60 0 0 0
10.053765452491943 -21.056726216830654 60 0 0 0
-16.110097489371007 -23.194270512645257 40 0 0 0
-4.8249724390101525 10 35.66819529778706 0 0 0
20 -4.019533975058956 6.491640995485541 0 0 0
20 -17.84446874998718 16.274432920047282 0 0 0
50 -17.278082471936045 48.1424201783456 0 0 0
27.014604176867106 -30 54.49290398251867 0 0 0
-0.8799900817126027 -40 34.81654843074109 0 0 0
23.0243398449497 3.5135512908518063 20 0 0 0
25.829372194516182 -30.000000000000004 35.064142409276286 0 0 0
-30.000000000000004 -29.867508895633502 6.198395270015297 0 0 0
10.777888056253033 20 47.93053650666519 0 0 0
31.86297644016472 20 35.516432139797345 0 0 0
50 -13.176921626169662 31.47891670999998 0 0 0
2.717857711351411 -40 25.858453747750474 0 0 0
50 -21.389440065896807 23.885378243348274 0 0 0
-6.602115913574638 -3.988301630126454 40 0 0 0
13.578205301229938 -40 33.31606076719056 0 0 0
10.04880427385159 12.26310175948921 20 0 0 0
20 -36.91097172764641 3.6246898973475625 0 0 0
-30.000000000000004 -22.9188613840001 39.77074801911169 0 0 0
-8.79044561590554 10 14.770770452344218 0 0 0
-30.000000000000004 -3.1900231881020584 15.570840377160742 0 0 0
45.00996721676083 20 31.617754051283818 0 0 0
23.41841274100282 -30.000000000000004 44.893317867486424 0 0 0
-19.58035583588311 -40 12.69644614900297 0 0 0
23.878607304710254 -30.000000000000004 31.940347893135783 0 0 0
22.01790675614863 -0.44576302657172384 60 0 0 0
14.018002764330255 20 52.24622442957305 0 0 0
10.920247435998283 -13.638653719629463 0 0 0 0
42.049369119130716 -11.090636216611898 60 0 0 0
50 -6.592224592618747 35.318253550361035 0 0 0
-7.4318651423937965 10 2.0887186574231453 0 0 0
20 -19.48346686525432 7.397275309729052 0 0 0
26.86500601790147 11.58919946830217 20 0 0 0
20 -31.647542310714513 30.038383132795982 0 0 0
31.67318579818737 20 52.73135181177936 0 0 0
11.153304460995503 -40 37.81519209864325 0 0 0
-20.877626878618088 3.688239829469584 40 0 0 0
19.457916388967035 4.0989854345559085 60 0 0 0
36.53618050112211 -8.098713456699027 60 0 0 0
0.6388116630906293 -30 48.38694311137634 0 0 0
-30 2.3269253188403916 33.6695539921846 0 0 0
-8.715935292987123 -18.241454357393764 40 0 0 0
42.96477757998034 -30.000000000000004 29.933512513494826 0 0 0
-14.484484179171027 -32.7146402386551 0 0 0 0
0.997987012843598 -40 10.044443667886986 0 0 0
48.374356654646974 -30.000000000000004 48.73759850335197 0 0 0
37.31093436354349 14.474858415534193 60 0 0 0
50 7.990296114231601 53.19892316739956 0 0 0
23.67734572555746 -30 24.058692811084303 0 0 0
25.947658869413495 -30 56.93002112066839 0 0 0
5.07979420715933 -40 19.335569059166858 0 0 0
-15.871263726554467 -29.671487775478273 0 0 0 0
39.598588454350164 -27.407952555179573 20 0 0 0
50.00000000000001 -28.625055723183344 38.53082681937647 0 0 0
0 -1.1153026768543128 57.15291157232268 0 0 0
18.575464127853266 1.9261524276464037 60 0 0 0
43.54987949763885 -20.965914349521473 20 0 0 0
50 -13.139728257963306 24.196621405052312 0 0 0
0 -15.729925141544037 47.05869875245668 0 0 0
-26.119655760060834 -21.822124510920666 0 0 0 0
4.0709416866632795 20 37.0103989434477 0 0 0
37.25863627030451 -12.406426795016241 60 0 0 0
-0.6397783805801449 -11.030279607991819 0 0 0 0
50 -23.07315335286463 44.07891576368311 0 0 0
16.119100202861755 -40.00000000000001 3.2584012128684674 0 0 0
20 -39.20051849875623 35.848178600821726 0 0 0
8.08225563172356 13.1755995113289 20 0 0 0
36.92037583651039 -2.180997031825127 60 0 0 0
2.9228275189748167 14.583164106394708 20 0 0 0
12.704033312715614 10 1.3731875276999488 0 0 0
18.421758324104246 -0.7996835796161017 60 0 0 0
-30.000000000000004 -28.04419477844807 1.4120232506711148 0 0 0
8.371956231245754 20 47.57522172647306 0 0 0
-30 -21.338100359466914 31.248320132143945 0 0 0
40.820562881799674 -30 25.638442992064377 0 0 0
24.576414713904455 14.111892787791742 20 0 0 0
-5.5367435633841655 -2.3700848139683206 0 0 0 0
7.334416502776751 1.1758740484602193 60 0 0 0
3.84149215828697 -35.03202624387668 40 0 0 0
50 1.3895742787930998 49.201473663189205 0 0 0
-30 -33.02264526161487 28.619244372760527 0 0 0
-30.000000000000007 -31.426737555967044 17.90602077632492 0 0 0
29.12675991148071 -15.29550378923095 20 0 0 0
50.00000000000001 4.556047122253128 48.64969541721497 0 0 0
9.135901066072236 -40 39.51800106070843 0 0 0
-26.13119028328508 -34.53946405301777 0 0 0 0
3.8032677042313168 20 33.344579326615005 0 0 0
-24.832423629626827 -40 36.263278255361726 0 0 0
50 -3.9502432401991596 46.99930812558128 0 0 0
20 -9.565216996504553 7.906920503781606 0 0 0
20.982654681886853 -16.876044695673535 60 0 0 0
-6.601090993080794 -31.9712893161789 40 0 0 0
2.2304987545267174 20 29.578952682008477 0 0 0
31.58787795416447 -30.000000000000004 26.543311218984105 0 0 0
-2.488395391259525 -40 26.59096255274069 0 0 0
5.379953051628523 17.366561460013763 20 0 0 0
-25.063837801601668 -40 0.10716561233027168 0 0 0
-30.000000000000004 0.21459917547861795 0.40073143336955996 0 0 0
1.4556856553329567 -6.925928679726052 0 0 0 0
12.568270630467811 13.040055289417536 60 0 0 0
2.607808468215076 -31.480603554044198 40 0 0 0
50 -15.732557315254843 52.50474335276743 0 0 0
-20.760070570167187 -3.2468548665041386 40 0 0 0
-7.839860868565673 -0.615626424837683 40 0 0 0
-12.830541992015457 -40 13.912919002544564 0 0 0
38.67806682301595 -30 26.765262022039515 0 0 0
42.663497520919655 -30 23.151461893297483 0 0 0
46.54936578429741 20 27.792901679777028 0 0 0
7.064701359283507 2.571532606413367 0 0 0 0
26.345607953307038 1.7805901550597447 20 0 0 0
50.00000000000001 5.987950459117039 24.963907136099373 0 0 0
-11.973245033050546 10 29.51034934702811 0 0 0
42.57511105042656 -30.000000000000004 57.2101549232426 0 0 0
-26.172237510873128 10 38.30555269415749 0 0 0
-1.6207782372929107 10 11.580121448068006 0 0 0
0 11.629305338314404 33.60715451352632 0 0 0
20.000000000000004 3.7708879093504066 1.8625536197156431 0 0 0
-30 -35.441137857474914 28.464200342290198 0 0 0
6.791928483542021 13.409883926347774 20 0 0 0
17.011398108215722 -18.04338480720454 60 0 0 0
50 14.21917220774068 45.47091827982613 0 0 0
48.14700905612996 -20.128828999646394 60 0 0 0
0 -12.555561038924168 48.2041666601804 0 0 0
40.72993972372727 2.4899664299981517 60 0 0 0
50 -21.019052775119924 54.28355332197786 0 0 0
39.23851407097583 20 55.86214367107588 0 0 0
-16.445940954818354 10 28.278124326969554 0 0 0
-21.924543744849295 -1.6585985113208146 40 0 0 0
-30.000000000000004 -5.163514188101281 0.7922683287375926 0 0 0
20.000000000000004 -38.80176966488444 20.582261374491395 0 0 0
40.03331902904125 -5.869069097502657 20 0 0 0
-2.5312577432632732 -20.68480916818828 0 0 0 0
20 -29.143485687274246 15.113219849352364 0 0 0
-8.599827703367833 10 31.865195628192833 0 0 0
20.727720726620277 -20.195757029669245 20 0 0 0
15.772325827634113 -6.064687499806607 0 0 0 0
-13.94952376091365 -39.63407709711887 0 0 0 0
-6.008345478218207 1.2151152925636222 0 0 0 0
50.00000000000001 -4.167947924774112 42.1351243099827 0 0 0
-30 -24.099589373962758 8.59105112431154 0 0 0
46.99514962127207 20 24.706561325446966 0 0 0
43.40048669530102 17.411853609332752 60 0 0 0
45.31072252211659 20 58.846616018026424 0 0 0
-28.139848349681053 0.6796975250727044 40 0 0 0
-0.05990472159344229 -13.641558677722498 40 0 0 0
-30.000000000000004 -15.66292689911226 8.061353698401412 0 0 0
3.088502186857398 -40.00000000000001 5.858595485733169 0 0 0
-30 -2.6868214284474226 4.385051729336871 0 0 0
-27.204626047613395 10 2.908475195480732 0 0 0
49.5615766381666 -24.174475802189896 60 0 0 0
34.28922909511683 -6.982484048689943 20 0 0 0
50 15.850529403356148 58.82397131939604 0 0 0
44.443933872712755 -30.000000000000004 55.054233053258734 0 0 0
50 5.1159024681504315 22.6345090394069 0 0 0
50 -23.839920192882378 55.06265284263654 0 0 0
-17.720895715859193 10 23.358126498459896 0 0 0
-30.000000000000004 -16.36365207208492 22.655797872066408 0 0 0
20 -32.18207203884707 35.11825775500306 0 0 0
-6.715573750769522 -40 39.00535222096618 0 0 0
-7.000727633480319 -28.631706586401773 40 0 0 0
-7.47804290963245 10 13.57635681218298 0 0 0
4.859528436725739 -30.000000000000004 41.31585209691704 0 0 0
-8.684742412848756 10 29.50639204564802 0 0 0
-9.589999038535169 10 36.58486217101331 0 0 0
-13.740997353448066 -40 11.277797842061986 0 0 0
-15.064771508362506 10 26.030516506186927 0 0 0
50.00000000000001 -21.043832405025064 49.40330171464165 0 0 0
-23.843651653194637 -12.093261113433753 0 0 0 0
19.334685671764742 20 21.64595281781906 0 0 0
18.261075470718126 7.25645490328616 60 0 0 0
3.3795716210173268 -40.00000000000001 11.864435771417078 0 0 0
-30.000000000000004 5.228600965453599 20.158427795469027 0 0 0
50 -5.562873494607805 34.61759299720526 0 0 0
-14.386835123592444 -25.88167162885967 40 0 0 0
-20.266029765022 -40 28.39864668827441 0 0 0
20 -37.13334124401833 30.947462502376865 0 0 0
44.913465504028586 7.5118320516831405 20 0 0 0
-25.990424321959928 -37.09379360875757 0 0 0 0
41.158748646806345 4.0237855836859815 60 0 0 0
-30.000000000000004 -4.198843931871855 9.810902704396707 0 0 0
-20.951716523129363 -17.58800619169511 40 0 0 0
8.363696117123446 -14.300194729259328 0 0 0 0
35.312531159870574 -15.402024972905416 20 0 0 0
9.729804866821414 -40 22.743964392106967 0 0 0
7.794261285008053 16.782943092651177 20 0 0 0
-25.296210700318316 -40 14.174932825460536 0 0 0
-11.02841013159063 0.2192067309372181 0 0 0 0
0 12.478483236617635 49.048015004511925 0 0 0
36.71153082359187 9.899411443574078 20 0 0 0
-19.889535931818898 10 39.62506232765739 0 0 0
20 5.8965567852819945 14.458419482437158 0 0 0
16.715268286278118 20 33.896165235851036 0 0 0
-18.434360822864974 -7.4709115724409525 40 0 0 0
22.7614280175238 20 47.58104673939806 0 0 0
20.000000000000004 -35.41954463134499 14.019065375448701 0 0 0
28.012205719953496 -17.086136260575678 60 0 0 0
23.030610439847507 -30 57.780826779911685 0 0 0
-30 -7.757401437385666 36.40029210429652 0 0 0
-30.000000000000004 -9.278445685877657 20.705330809906744 0 0 0
20 -37.432369434941734 7.479638106878679 0 0 0
36.579443647796026 -30 27.5113446114172 0 0 0
9.789627208276478 -29.14012878161861 0 0 0 0
20 -30.49227518983757 3.1066274657410697 0 0 0
-10.183272822845385 10 22.892631656905927 0 0 0
10.419747908795136 -40 30.146198193610736 0 0 0
0 -23.388395287743013 50.94986283730244 0 0 0
-25.390695145069945 0.3831020185645251 40 0 0 0
22.240290894284982 20 44.43711622824758 0 0 0
5.239062800649119 -36.79114569294785 40 0 0 0
18.514301538706892 10 14.411966136848537 0 0 0
47.384513936650244 -30 25.942869449939053 0 0 0
39.159030741620356 18.863564920082485 20 0 0 0
21.02718009661286 -1.3719863776918428 60 0 0 0
-15.738973429305002 7.048849657666336 0 0 0 0
29.941978063407344 -4.6016411690980386 20 0 0 0
6.211385506303695 -30 59.78667495762309 0 0 0
21.34751857786789 -2.645162801558696 20 0 0 0
34.88258034218224 20.000000000000004 34.11901629256039 0 0 0
28.78608807399221 7.9691588170682826 60 0 0 0
42.04853674957927 20.000000000000004 30.244299755545473 0 0 0
8.429281110143885 3.769006637748795 0 0 0 0
26.720850112252332 -11.2627763167316 20 0 0 0
24.164346989320755 20 32.12575775204495 0 0 0
-30.000000000000004 -31.591303232866967 35.8137170950946 0 0 0
47.94217236244222 -30 59.338921364088975 0 0 0
0 17.023107016935537 44.87212444882474 0 0 0
-30.000000000000004 -2.356349016705686 2.9814830622549557 0 0 0
30.041803969089784 -30.000000000000004 44.88923805993481 0 0 0
15.45346331105263 20 46.57333721712853 0 0 0
28.955364659873474 -21.04114183738881 20 0 0 0
-13.788005906989804 -40 39.96744407339368 0 0 0
-13.035154772473106 -25.64301083592838 40 0 0 0
39.14209762082534 19.999999999999996 36.90327974823457 0 0 0
37.54235111993847 -30 24.7451918966813 0 0 0
9.427537140169902 -34.95603248707766 0 0 0 0
-20.097021772571388 -1.2340640561813832 0 0 0 0
10.828389390757494 -29.97250955550583 0 0 0 0
30.06547520871529 -14.466173399456856 60 0 0 0
35.759159054495 -26.034317694620377 60 0 0 0
20 -22.123372881730727 7.9793337955974675 0 0 0
8.594556082316931 -25.29000025488902 0 0 0 0
50 18.671406925968558 24.858973661837624 0 0 0
-12.265252541874187 -35.315156036668995 0 0 0 0
-4.649719602730924 3.0026156096731427 0 0 0 0
-30 -23.69294956032789 2.5075370084995106 0 0 0
44.91906079692722 -30.000000000000004 30.102067966993 0 0 0
50.000000000000014 -22.062900723918766 47.094963261436206 0 0 0
1.4974568930908383 -3.375780644535915 0 0 0 0
3.416816868547734 20 22.409953327109086 0 0 0
23.91921888288074 1.6862836627691458 60 0 0 0
33.15631767416202 -30.000000000000004 32.037914531323096 0 0 0
42.45484352226129 -30.000000000000004 25.221428352045564 0 0 0
19.538516048127093 -30 58.38768150582336 0 0 0
22.714520582330657 -23.423801191814153 60 0 0 0
0 -10.387906138965803 43.92967856672112 0 0 0
-28.835654835605837 -20.161735336371574 40 0 0 0
20 -21.617264115073375 1.3554875000172704 0 0 0
5.698296476946352 -30 48.04730634579775 0 0 0
18.571449727086097 -33.770663646874326 40 0 0 0
-4.258320766621417 -35.326217354892854 0 0 0 0
-30.000000000000004 -2.428126326961504 16.66223349825583 0 0 0
47.99884646106457 -2.2971647150335706 20 0 0 0
-30.000000000000004 -38.610134491981086 18.51762690512353 0 0 0
1.8240273659229378 -40 29.981565824701253 0 0 0
5.677553338779862 -30.000000000000004 49.64948564285855 0 0 0
17.971346391351588 -40 34.396662672235 0 0 0
22.93715957688967 4.983863022636559 20 0 0 0
4.6049805379495865 4.322918082737792 60 0 0 0
50 -5.8211881973879365 52.729745932263214 0 0 0
20 -12.150455541978804 12.60210963552916 0 0 0
36.6524818756862 -0.7793055897482226 20 0 0 0
0 14.832355107568365 52.03712476046623 0 0 0
-10.727121457796134 -40 20.250203563016935 0 0 0
50.00000000000001 -7.798935178573673 28.360015008766215 0 0 0
50 2.7498741833259652 32.32430074937842 0 0 0
50 -1.5483561724183836 55.33873205787444 0 0 0
0 -0.17601536129415507 43.81195455035751 0 0 0
16.58870329455878 -11.70641508498528 60 0 0 0
10.953959380720724 -40 11.98004879615272 0 0 0
19.955954961458204 -26.592472710922582 0 0 0 0
-0.5532111090390046 -29.081372944210365 0 0 0 0
35.51689041104023 -16.784752708293848 20 0 0 0
-30 1.8016788278714202 15.74986773345148 0 0 0
-30 -18.46201142690237 21.258225283240073 0 0 0
20 -35.337501957704085 28.913360288791992 0 0 0
42.193222577773604 -0.3081828403790432 20 0 0 0
22.77600759303943 -21.325398600346126 60 0 0 0
-16.3360082667023 -40 31.091882228428442 0 0 0
-10.930801635110193 -19.759199814758823 40 0 0 0
35.89105577482425 20 47.29523894716764 0 0 0
15.589325789170958 -14.298260712203689 60 0 0 0
20 -6.078854848667455 16.73848100786027 0 0 0
2.2550170506606904 -33.13614472892887 0 0 0 0
0 -12.200547974650071 54.99873775755928 0 0 0
-21.08423732271615 -26.121569939945623 0 0 0 0
30.515153138206877 -12.854537750992243 60 0 0 0
8.117314990664514 -29.999999999999996 57.51105312142104 0 0 0
-30.000000000000004 -0.7863992735680372 8.362296283413794 0 0 0
-19.76830748830377 10 1.842197832577954 0 0 0
46.28628075415561 4.0728515917774555 60 0 0 0
-27.338078775134917 10 22.89832578175623 0 0 0
18.250340390135698 8.897982877165997 0 0 0 0
22.056531916398804 -22.44571672400726 20 0 0 0
-11.795952390784377 -13.926665598492445 0 0 0 0
20.329410708662778 19.7278607681989 60 0 0 0
11.549425172409702 3.0989087759977707 0 0 0 0
48.231985954675814 16.69460060386667 20 0 0 0
-4.550884554419152 10 32.616849426467375 0 0 0
50 11.829563557090967 55.066978258577635 0 0 0
-22.249119813670006 10 13.685678324515784 0 0 0
-14.195173664109397 -23.308192777125253 0 0 0 0
9.577405149851646 -31.89282829961406 40 0 0 0
-17.912213307764482 -25.051096410048707 40 0 0 0
-20.8011834327137 -28.6673337959998 0 0 0 0
-5.332794815922526 -1.4514129289665334 40 0 0 0
-23.19441220406183 -40 7.4296424572494075 0 0 0
-9.901916547632737 -18.06004694572652 0 0 0 0
50 -24.946659563550106 31.290178285581142 0 0 0
25.942859787467327 20 44.767547130942134 0 0 0
10.320440242216193 20 44.73551021178045 0 0 0
50.00000000000001 -6.3084883225655535 22.91519070179909 0 0 0
-30 -29.78053144634725 11.99704981036347 0 0 0
-26.75115092971882 -40.00000000000001 31.772801499708 0 0 0
21.780836336212623 -12.704518773921077 20 0 0 0
-7.574838664184713 -23.053330370715507 40 0 0 0
50 19.9923044582793 31.09591555367034 0 0 0
23.24845920002482 -25.789944704524217 20 0 0 0
49.8960659140237 -28.334056208065736 60 0 0 0
19.09229481550506 20 44.670754440441144 0 0 0
35.4242007645891 5.290881774989371 60 0 0 0
37.38071016845326 0.8065674411163481 20 0 0 0
-3.8395459595320514 -11.897641812403519 0 0 0 0
23.07287779314112 -10.498398295835777 20 0 0 0
-28.07191614437472 -12.194334711969987 0 0 0 0
-8.557886522523074 -21.26765418856761 0 0 0 0
6.17404358749001 -40 31.398371249157183 0 0 0
20 0.3537629592948477 10.709277862081898 0 0 0
34.9167225812174 18.56172094520261 60 0 0 0
50 -12.953193589557515 27.47321619068888 0 0 0
20 1.3329250138871984 13.974274422030092 0 0 0
21.317962776551944 -30.000000000000004 34.59362351083831 0 0 0
-14.764666336013315 -1.1110040504070984 0 0 0 0
-30.000000000000004 -31.526499293524076 1.5703504539888122 0 0 0
23.98383076022558 20 54.599812251795 0 0 0
19.999999999999996 -3.8151720230538206 2.119147759917727 0 0 0
-19.812721353868355 -40 17.831693225461848 0 0 0
20 -12.998237667138799 17.896163173902856 0 0 0
-27.951115899696536 -2.178057880223756 0 0 0 0
35.183372760742614 20.000000000000004 39.325670888333434 0 0 0
15.184508480683206 10.89391512837909 20 0 0 0
14.350980661972885 -40 23.909481607335383 0 0 0
-26.081188831516148 10 2.314658389573292 0 0 0
20 -35.77171543881843 20.162726631463844 0 0 0
20 -26.36036954650672 12.657372175090654 0 0 0
-26.027690077213425 -23.571831641519367 40 0 0 0
10.960218101255697 -32.38187675009569 0 0 0 0
50 7.686109094734359 55.43453864540651 0 0 0
50 -20.3747544811921 57.97331569621959 0 0 0
-7.082951961589488 0.02682729159800168 0 0 0 0
42.68099583810241 -1.4859813784649534 20 0 0 0
12.36020685283477 -35.726849346294465 0 0 0 0
32.68975763706945 1.0178459300742748 20 0 0 0
35.42148381724091 20 30.86137891321507 0 0 0
41.943293107647115 -6.334021741679878 60 0 0 0
40.786688863666114 12.997362484688573 60 0 0 0
-6.291171706417185 10.000000000000002 1.8297712885913309 0 0 0
16.64092269104017 13.204735681975599 20 0 0 0
41.9235949366929 -30 39.74400411348045 0 0 0
18.977010929480667 -8.742990875031328 0 0 0 0
20 7.074586594046366 19.514270564315034 0 0 0
-30 -34.15430272657158 13.260437945490908 0 0 0
18.82026713286539 -30.000000000000004 40.348009755997 0 0 0
-23.549886319576707 -35.918867967985044 40 0 0 0
4.209012307323986 -30.000000000000004 50.43381787391092 0 0 0
-30.000000000000004 -0.505726309728694 24.95657441437085 0 0 0
-9.469618820338336 -40 26.922286109496973 0 0 0
15.342109885691713 10 5.891071597994805 0 0 0
5.949004206782674 14.592403757661767 60 0 0 0
2.2952299342934177 -1.183575722940069 60 0 0 0
-1.5048074356768386 10 9.216435909837688 0 0 0
-14.001187087968546 -5.839901271201624 0 0 0 0
-1.035616924537166 8.560321982279566 0 0 0 0
19.520836770311387 -40 7.044377591015946 0 0 0
17.164921838401316 -0.8345223780882183 60 0 0 0
0 -26.928676425911817 43.887693464703716 0 0 0
46.52785032360249 -30 53.65253360646429 0 0 0
20 -31.49256532149975 5.814751556988225 0 0 0
20 -39.099634843459185 25.326037418714744 0 0 0
48.52171896422363 -30 58.072696830179865 0 0 0
-21.20793419015032 -4.510323393396254 40 0 0 0
-28.0238787122182 -29.62287131679378 0 0 0 0
-6.146472257630187 6.967411458942765 0 0 0 0
-11.811421914869651 -26.748715157969258 0 0 0 0
18.264139545273103 -14.154818083231719 60 0 0 0
44.828947188718686 10.28368812998929 60 0 0 0
33.161440134589306 -30.000000000000004 35.769189510386994 0 0 0
39.03094024352308 -0.4382906995892011 60 0 0 0
33.533966300792045 -23.490274643288124 20 0 0 0
20 -13.047943586971586 15.757238741851056 0 0 0
14.325514861534126 18.75421812699838 60 0 0 0
50 -26.744384568531245 47.88997362735215 0 0 0
50 15.708451976863886 37.75374012894637 0 0 0
2.5946601957989213 -40 20.898936475114404 0 0 0
-30 -14.589006218402183 29.856103244170598 0 0 0
-10.787130599276688 -40 28.489633867745123 0 0 0
5.107074861930254 20 20.429853946170702 0 0 0
0 14.7009739441336 47.419459962947045 0 0 0
50 -20.955076641847885 34.05215951337114 0 0 0
7.002670693678161 -30 41.385022970561415 0 0 0
50 4.485498971531855 33.6490804020544 0 0 0
50.00000000000001 -10.24261888593557 23.32623433476605 0 0 0
-9.256572331887014 10 39.59892924856345 0 0 0
-12.314299085323839 -40 0.15279235325418056 0 0 0
19.999999999999996 7.500258194049926 12.728171466257503 0 0 0
50 -8.530893092290906 57.39527167631092 0 0 0
31.7377335539729 -24.94406389768425 20 0 0 0
26.48504461463776 -10.659511722931413 60 0 0 0
39.71534813275344 15.967582005992336 20 0 0 0
49.46771303632656 -12.733409750616836 20 0 0 0
-23.15412756668131 -40 36.71063139881503 0 0 0
50.00000000000001 -0.3232086358234282 21.4914630732925 0 0 0
6.794245660674873 18.612484218837917 60 0 0 0
50.00000000000001 4.608330779992189 20.80971950702822 0 0 0
0 4.295073330539764 42.307795799480665 0 0 0
-22.6906987990675 -28.84430564420498 0 0 0 0
50 2.5101582484832696 50.319540943167894 0 0 0
-30.000000000000004 -18.70108656524732 1.4009493595924927 0 0 0
22.927380643285524 -30 30.591625054642392 0 0 0
0 14.58622673739969 38.709761173794874 0 0 0
50 12.46025133992557 53.44397300549036 0 0 0
-9.246474303885584 8.407320095415844 40 0 0 0
-30.000000000000004 4.34957517979182 31.615941073566653 0 0 0
-13.093188508922786 10 25.61945186258268 0 0 0
19.999999999999996 -0.7305638774906064 3.8099809940019536 0 0 0
50 -2.8626257147931606 34.555368728263005 0 0 0
0 3.580638670167249 51.079076580274425 0 0 0
33.66527321453452 19.879808328058488 20 0 0 0
20.838353536482135 20 46.31859933320368 0 0 0
36.33527231232043 20 44.00921317935419 0 0 0
17.821763627148123 19.970062705674245 20 0 0 0
35.20500445049489 2.5344543357074523 60 0 0 0
50 13.472472668379751 33.69682241869011 0 0 0
50 2.0907944497143838 38.8767661614701 0 0 0
11.670983048002688 -3.3770124117736744 0 0 0 0
50 -2.4238789279125097 52.073740750585564 0 0 0
40.297143831987476 20 35.88133697206217 0 0 0
20 5.965989770351908 3.795430885532606 0 0 0
36.08914233562031 -30 43.791882034294254 0 0 0
-19.597532520814582 -0.1011967566335592 40 0 0 0
20 2.717102911657232 8.879827432744126 0 0 0
0.4249127304297509 10.000000000000002 1.2476075632719361 0 0 0
50 -20.60650160098751 44.1539081112267 0 0 0
40.91256479309526 -10.61667083791302 20 0 0 0
8.55541690651114 6.378885612999499 60 0 0 0
-30 7.3763518023194585 7.322626694721462 0 0 0
-20.854783910724706 10 14.585970106807524 0 0 0
39.075645682902845 20 46.58953056977573 0 0 0
-6.601471554768022 -40 30.790733523103746 0 0 0
-28.976776562154658 -40 19.970580143840323 0 0 0
-30.000000000000004 -3.827391790145712 1.80142847905002 0 0 0
-29.676038953324806 10 32.75192627345767 0 0 0
-15.752640052583367 -13.396335785927409 0 0 0 0
50.00000000000001 -2.8756011570224516 29.522115499489992 0 0 0
-9.488615123316935 -4.820021537514414 40 0 0 0
32.29878907198962 11.982986331909427 20 0 0 0
50 -17.34487967442017 42.35619309468018 0 0 0
12.14667495905732 -40 4.661411589319544 0 0 0
-30.000000000000004 2.9144442514117945 1.7142524764473794 0 0 0
20.000000000000004 -7.388666336139984 8.098958082543202 0 0 0
2.798409970849019 20 59.603476896697416 0 0 0
12.150975648384055 20 41.23202766349168 0 0 0
-30 -37.320241526384024 37.039723711572464 0 0 0
3.8457253732931562 20 45.53764333275037 0 0 0
-30 -32.99797857785504 38.345592766229814 0 0 0
28.65728446219922 20 44.863044780149615 0 0 0
-13.298361084097232 -1.5447510087605343 0 0 0 0
-30 0.7783291492510186 17.908940565729953 0 0 0
12.736261753708257 10 18.775350460212373 0 0 0
11.4802363847756 5.322448767406147 60 0 0 0
19.399243364762164 -37.41202299362608 40 0 0 0
6.525975347741488 10.000000000000002 13.285992989915423 0 0 0
50 -19.34792209851924 59.854092243990905 0 0 0
11.906304681630004 20 57.052229082701835 0 0 0
42.13731234992729 19.91959715258311 20 0 0 0
-29.983987584702664 -24.057388167855045 0 0 0 0
45.50137552223232 -30 48.068636277722504 0 0 0
16.94649940680084 -6.296261780101928 60 0 0 0
50 -17.855323770947436 50.999714504461615 0 0 0
48.33086272623896 20 32.99827285716229 0 0 0
12.120190356914042 -25.115320903768446 0 0 0 0
-19.23977214807634 -22.34880915021003 40 0 0 0
50.00000000000001 -15.791709802947803 29.750213608960724 0 0 0
29.709903513877606 -1.818131544542565 60 0 0 0
0 4.88564243767673 45.16481858918667 0 0 0
3.15508954373891 -30 43.299040730716214 0 0 0
20 -11.43494231693211 19.749442720669062 0 0 0
-18.692393823849223 10 32.600211702566696 0 0 0
-18.305525662519745 10 20.455756662625713 0 0 0
17.5725937623403 -39.32940164549714 0 0 0 0
-30 -10.866012559675617 6.622404701366278 0 0 0
-25.809825298287823 -9.554803645962293 40 0 0 0
44.17448718760838 -30 49.48517886432129 0 0 0
43.7740570603749 -30 27.288424301561168 0 0 0
14.463868716016357 10 9.199446146003643 0 0 0
-10.298764505562728 -11.887327088921946 40 0 0 0
-4.348430253727562 -28.511790283262634 0 0 0 0
50 8.756916527057504 27.38714952365828 0 0 0
20 -35.55212792267656 0.3327471950709574 0 0 0
50 -9.80372508978645 32.78922454118227 0 0 0
-30.000000000000004 3.768951922547519 20.865333239019538 0 0 0
-30.000000000000004 3.8250546547701 12.840642339010094 0 0 0
0 -22.238861970714687 46.225872666680196 0 0 0
15.222272796194197 -28.450982965738973 60 0 0 0
42.619902148200154 20 55.87525596650096 0 0 0
-29.505110806555074 -4.3640070056375135 40 0 0 0
34.11603916162441 -30 34.44116535337696 0 0 0
-15.471683850265894 -40 20.19728302033492 0 0 0
-5.333699037010642 3.645714569671874 40 0 0 0
30.11926148558002 -30 36.746533613999624 0 0 0
50 -5.89818503516641 40.06619951690836 0 0 0
7.161560588125866 20 42.1504990859658 0 0 0
-27.43588298905449 10 0.7676825675962877 0 0 0
-18.50513239787199 1.4876170649601228 40 0 0 0
48.801004024595485 7.253300769838176 60 0 0 0
36.335493641130384 -10.969770988901038 60 0 0 0
50 14.007193620320031 49.27844093613253 0 0 0
-1.8257391694121583 10 15.349960613693092 0 0 0
20 -34.177825396963314 33.59946373552059 0 0 0
20 -31.53150361568272 17.139515959257036 0 0 0
41.38616846938905 1.499109734547841 20 0 0 0
-0.044361553175545215 -40 3.0894269994876473 0 0 0
-19.53165511578864 -40 23.490921493382622 0 0 0
-24.73810526297339 -40 28.05828958193692 0 0 0
-28.750754631474035 -26.83535921705671 40 0 0 0
20 -27.262855347834 10.57087693855673 0 0 0
-29.725580843969055 -40.00000000000001 17.10786149702401 0 0 0
-18.173393713391103 -24.327877654846702 0 0 0 0
50 -17.55274945290422 54.584294182520495 0 0 0
16.273687065706444 16.631759706247493 20 0 0 0
-15.743245894901104 1.9101535072131792 0 0 0 0
-28.413524636260014 6.9065647557874055 0 0 0 0
-1.7976834260847774 10 21.346335532770652 0 0 0
-30 -35.58504863902229 35.01796422294247 0 0 0
-30 -27.304472591404085 12.14135829924669 0 0 0
14.055457089122132 -30.000000000000004 49.19428107756856 0 0 0
46.974890025786536 -30.000000000000004 28.39065717923951 0 0 0
14.133034089642129 10.000000000000002 15.314071781613897 0 0 0
-24.255076299540267 -14.565303779470412 40 0 0 0
37.40416690120668 -30 56.981066836501036 0 0 0
24.239951057471313 -9.170097191431603 60 0 0 0
39.60017652232209 -30 28.837570626678676 0 0 0
50 7.357960146552856 57.7478022490385 0 0 0
18.523738211264718 10 9.056964260086867 0 0 0
-15.141339588510494 10 8.895311266600764 0 0 0
-3.2229314619781997 10 3.5636854933405693 0 0 0
0 -16.982652026686193 49.83853594858132 0 0 0
-25.64475863969175 10 7.550664584874484 0 0 0
17.090401410632957 6.784732428744777 60 0 0 0
44.13746120135181 6.738842533314058 60 0 0 0
7.286967894661691 9.945931555678102 0 0 0 0
50.00000000000001 -16.26149186690407 53.6978698865035 0 0 0
-10.608584001012417 -40 9.998656162060172 0 0 0
-30 8.633287962820974 28.15701104149084 0 0 0
15.570761685059766 -14.318732192888266 0 0 0 0
-18.793579181094458 -8.125211339502227 0 0 0 0
48.91857716670194 -8.785758641914354 60 0 0 0
-4.361217894759597 6.855632773067626 0 0 0 0
46.54126257940254 -1.9376069595746737 60 0 0 0
-19.69105192911394 -40 39.14558591281324 0 0 0
4.713624084700658 10 11.045432952719478 0 0 0
-17.37486407038517 2.3037119173927767 0 0 0 0
-16.621566622807443 -3.8234299904775915 40 0 0 0
24.941556586391087 1.6500288814539221 20 0 0 0
39.617640310720375 20 39.23690349759391 0 0 0
38.39210941847047 -30 51.742000929891134 0 0 0
-17.168914492786357 -12.681906783339523 0 0 0 0
-14.587526989443006 8.885352070855612 40 0 0 0
-9.9359348741993 -22.21263130298473 0 0 0 0
25.684850442076495 -8.944529187374064 60 0 0 0
20 5.0272729830012075 16.520565402005133 0 0 0
4.892914046017879 -23.96854717934902 60 0 0 0
50 9.320167032685216 43.96901493145572 0 0 0
38.96713631179516 20 59.33456612719902 0 0 0
10.570685710092395 -27.14736605395906 60 0 0 0
-12.070469033005864 10 10.867688530528772 0 0 0
30.921711507682552 -30 38.48346917819393 0 0 0
20 -37.30692910836402 17.6667666517509 0 0 0
20.225184746191456 20 40.19019921319103 0 0 0
-21.942845188054655 -40 34.171105676410306 0 0 0
-30 -4.963389986643279 20.459816577127118 0 0 0
13.80443414850367 10 6.116689111160435 0 0 0
0 17.92697916176495 23.572080286020455 0 0 0
-0.17082181767133275 10 16.107779152741553 0 0 0
8.86985345225309 -33.19053182526982 40 0 0 0
13.424198214627898 3.769123355750512 0 0 0 0
45.73778614669004 18.99935575621173 60 0 0 0
-7.631033760323671 -25.707093768616716 40 0 0 0
-18.64947063319827 10 26.369753883392434 0 0 0
50 11.769169197310312 38.678965838010875 0 0 0
38.28059485567762 20 43.60417361539051 0 0 0
-24.921943636109095 6.874216383730163 40 0 0 0
-4.238039750716663 -40 11.771045071897586 0 0 0
-12.99376258300327 -16.478168357386338 0 0 0 0
18.51421525167032 -30.454291757407734 0 0 0 0
-2.471252466771401 -31.41727368879005 0 0 0 0
-6.468644769149203 -4.305545908541206 0 0 0 0
-6.259421709114417 -22.77418498544683 0 0 0 0
-23.531438821708512 10 10.694298879566741 0 0 0
50.00000000000001 9.656882658441026 53.15816575342704 0 0 0
-30.000000000000004 -7.010778732137198 28.147300234133056 0 0 0
42.21985553960309 20 45.940302715609 0 0 0
-1.149439793615343 -40.00000000000001 1.565297824128204 0 0 0
50 -28.408727463525132 42.20631743884009 0 0 0
7.526778684708653 -40 28.819432737687343 0 0 0
30.970578771536506 14.088901623193593 20 0 0 0
-3.2369275871836267 -30.227275337198414 40 0 0 0
-22.822177518542006 -38.690612241016055 40 0 0 0
-13.102083012043536 -31.550703785172992 40 0 0 0
-24.464357637085186 -5.9969396265209385 40 0 0 0
0.5017037971418858 20 33.203293053993626 0 0 0
48.61384751210635 -30.000000000000004 51.64486839978252 0 0 0
31.27415391210194 19.98192167840056 60 0 0 0
12.217758555066657 3.0274012326390487 60 0 0 0
10.924434224574098 -30.000000000000004 57.10543215140024 0 0 0
20 -26.530093842432883 4.679434748682861 0 0 0
-26.748454518033398 -39.99999999999999 34.1873882125073 0 0 0
-18.00940981042078 -29.4894948413081 0 0 0 0
-1.5722560517360784 10 33.33566406431406 0 0 0
49.828264769086736 -30 50.35721426380669 0 0 0
31.410388523438193 -30 40.61575801140432 0 0 0
-30.000000000000004 -33.58223252630897 36.110731100715114 0 0 0
50 -24.851596441516463 48.55031905162629 0 0 0
6.928050120793314 10 14.957477047553976 0 0 0
31.266243444414002 20.000000000000004 22.371666246266884 0 0 0
5.927934216301866 -40.00000000000001 9.186659422324347 0 0 0
20 -34.936463769961364 26.464312815323616 0 0 0
-30 -29.269429766232804 3.205088620635257 0 0 0
0.29992198119867686 -9.18327247220244 60 0 0 0
20 -19.494648626770196 1.6231040664124792 0 0 0
12.450701190368598 -14.112576946668597 60 0 0 0
36.15623900487844 -30 40.88520557660851 0 0 0
2.5623701059084247 16.873347250220057 20 0 0 0
44.06794530528967 -4.198592814709334 60 0 0 0
50 -19.831317514102587 29.938187920459637 0 0 0
-15.174327825742926 -25.334312676142115 0 0 0 0
15.741436470179558 19.95756945570818 60 0 0 0
-30.000000000000004 -13.960276215318718 4.853745906080001 0 0 0
44.683027264980154 -26.153698091466772 60 0 0 0
-16.772556107851003 -40 35.66194150394851 0 0 0
30.46380885898312 20 42.19023949568636 0 0 0
-25.99874324444623 -25.45048236169409 40 0 0 0
20.031815380804154 2.1603498804198384 20 0 0 0
-30 -18.282955651303254 39.43082842949351 0 0 0
0 5.105189255022077 53.263645858161 0 0 0
20 -37.658307686288985 38.66719236535355 0 0 0
1.701976168761954 -17.383940819364014 0 0 0 0
20.000000000000004 -38.17617626310148 13.354896350463342 0 0 0
-24.36368432099171 -40 30.601942888741355 0 0 0
22.270182390823116 -0.961380992532419 20 0 0 0
-1.0793972346370095 -13.218002576948145 0 0 0 0
50 1.9543539462398463 41.12811151013156 0 0 0
0.25911631540354163 -30 58.055246210682796 0 0 0
21.06472110425342 20 52.39657329041351 0 0 0
5.7104288114749036 -40 38.37269874213855 0 0 0
-2.7968784388140233 -40 15.631534371353467 0 0 0
9.146906132412573 10 8.596585322449258 0 0 0
2.095725504726044 19.08103439914111 20 0 0 0
19.363244929985726 -40 1.5385748825681278 0 0 0
20.000000000000004 -24.475857990084158 10.694068451735223 0 0 0
50 -18.673979201667933 39.10046691964402 0 0 0
-30 -39.04046293769053 31.52781715222067 0 0 0
20 -17.61574761365342 18.613362917030866 0 0 0
-22.431023271023776 10 12.13655669807296 0 0 0
20.000000000000004 -11.859055278757149 7.964290812594951 0 0 0
-25.865964561638407 -26.906710237686852 0 0 0 0
33.02640050324909 5.000282961409672 60 0 0 0
-28.60200826013554 3.8963633467892045 40 0 0 0
50 17.594545687360007 26.0546411229552 0 0 0
0 4.124076871259169 48.45879952817168 0 0 0
12.367436337455846 -39.138658772752926 40 0 0 0
1.9338051750947738 -25.065576380614925 0 0 0 0
-27.611106092860503 -7.143456482860935 40 0 0 0
8.88483195979373 -22.4454462073955 0 0 0 0
-18.06092573239511 -3.7782788433964765 40 0 0 0
39.182248450434884 -25.608137569207763 60 0 0 0
35.415612689878614 7.5911887677345335 60 0 0 0
-16.937232053343784 -40 2.5513536494930062 0 0 0
25.35315466828326 -30 47.43710878651455 0 0 0
45.56911377961241 -7.124917892331686 60 0 0 0
-17.634003738702276 -37.07256497213271 40 0 0 0
50 12.456415338654274 39.955970412099724 0 0 0
20.095013720027644 9.263781248249012 60 0 0 0
-30.000000000000004 1.2342431215728848 22.289102739789108 0 0 0
9.797480520698 -30 43.69997608647681 0 0 0
26.21005062303042 -7.331894974844482 60 0 0 0
20 -28.563224714511648 11.197748785464906 0 0 0
18.00740955770361 -10.320371654965154 60 0 0 0
5.106173877188099 20 32.6666358731066 0 0 0
-7.650480730296321 10 24.253442261486057 0 0 0
4.440193643998445 -18.30970733347801 0 0 0 0
2.8892316123886186 -34.28352366401047 40 0 0 0
-7.572566190535466 -26.558677529245 0 0 0 0
12.7830616677101 -40 20.858767470744795 0 0 0
22.13247449702233 11.753625283834346 60 0 0 0
40.03662068398512 -30.000000000000004 38.37538313976275 0 0 0
40.163549683132935 -2.0783368088669762 20 0 0 0
13.056434790164433 -28.365489090031705 60 0 0 0
0 8.969318097908676 43.724361613264485 0 0 0
50 -0.24430756934187947 36.86791955347542 0 0 0
10.993004194923213 -40 25.350915559265257 0 0 0
34.88664116472315 -30 31.530416836743438 0 0 0
-30 -14.822292441885132 27.314027635061198 0 0 0
41.876500608342 -21.79886064575932 60 0 0 0
48.02770211735168 20.000000000000004 31.804205128831885 0 0 0
24.711767153214556 15.890736717679879 60 0 0 0
4.976068108797103 -34.157666756844925 0 0 0 0
26.84242773188391 -22.671774114794925 20 0 0 0
-16.708373383948754 -39.72486351603869 40 0 0 0
1.7061733648675315 20 42.150846655550815 0 0 0
-6.744888060141764 10 29.145528799456322 0 0 0
-21.800501799118006 -9.150417400128399 0 0 0 0
15.779219970935593 -20.970177990836177 60 0 0 0
33.00214888667788 -26.50404858240115 60 0 0 0
19.870418268195547 9.381203809464917 0 0 0 0
40.812175902916195 -16.567410401332847 60 0 0 0
4.335198339230937 -38.27975146392349 40 0 0 0
20 -30.44000289423392 14.683755009753517 0 0 0
50.00000000000001 9.42022604840819 35.44075679753011 0 0 0
32.73730822034986 -10.46879583525881 20 0 0 0
-30.000000000000004 -26.585142759878728 3.7230611982397086 0 0 0
-10.538359345187603 -5.820921010254381 40 0 0 0
-5.69225201182638 -22.502677260200805 40 0 0 0
33.41650442845025 -7.161060216445971 60 0 0 0
50.00000000000001 -15.893601288969439 44.57509813111979 0 0 0
-0.7944830277908999 -31.62730720901271 40 0 0 0
26.140057005053414 -30 52.539285529656006 0 0 0
20.000000000000004 -34.89911622130271 23.166818536430046 0 0 0
-10.192433497958087 -4.356044896112774 0 0 0 0
-24.256847046435276 -29.75687950838212 40 0 0 0
-19.03083973053416 10 11.989087672899053 0 0 0
29.140649376968227 6.534351919095198 60 0 0 0
14.013536094694182 -18.6257074021854 60 0 0 0
0 -7.164543456008907 51.08926673936159 0 0 0
34.568216108981616 -13.205714581164397 60 0 0 0
-30 -37.47209434745464 20.14823230921674 0 0 0
9.204236720318095 10.000000000000002 19.999900395050602 0 0 0
0 18.100396384531816 37.28879279330783 0 0 0
-3.124868340382748 10 14.257829289072115 0 0 0
17.167804579794314 -40 32.25980126869855 0 0 0
-21.246986338518088 -24.408029068451388 0 0 0 0
0 -9.509691721531405 52.13178855931936 0 0 0
-14.51343711210109 10 30.502842939692947 0 0 0
49.88846818445644 -30.000000000000004 27.703580990295666 0 0 0
18.223849133692607 20 47.567197190396115 0 0 0
-20.430067358738775 -16.655660745061777 0 0 0 0
-16.854307463790434 -5.510774574014716 0 0 0 0
16.071730370666707 -25.642720277254803 60 0 0 0
0 -14.539595495229385 56.84832487108574 0 0 0
19.98030192683465 -30.000000000000004 43.59867439772873 0 0 0
31.68393924445097 -2.1326805987081876 20 0 0 0
